# .PCD v0.7 - Point Cloud Data file format
VERSION 0.7
FIELDS x y z
SIZE 4 4 4
TYPE F F F
COUNT 1 1 1
WIDTH 1481
HEIGHT 1
VIEWPOINT 0 0 0 1 0 0 0
POINTS 1481
DATA ascii
-0.0239882 0.50910598 0.78029603
-0.244248 0.49697801 0.79734498
-0.19441099 0.503286 0.86689502
-0.25139701 0.49665099 0.79812598
-0.45504701 0.48732501 0.81898397
-0.42488599 0.47204599 -0.79587102
-0.37073001 0.44594699 -0.72690302
-0.289756 0.47741199 -0.79248601
-0.29583699 0.48126599 -0.791264
-0.304113 0.48063201 -0.79133201
-0.43051001 0.47510701 -0.80208999
-0.57756799 0.47079301 -0.807145
-0.58801502 0.46796501 -0.80060899
-0.59079599 0.464908 -0.79098302
-0.60574901 0.44042301 -0.73611802
-0.59003198 0.44447401 -0.74216199
-0.64222401 0.45950401 -0.78501803
-0.65164 0.46371001 -0.79549301
-0.58792502 0.44264701 -0.73765999
-0.58800203 0.437617 -0.72725898
-0.58083302 0.44096199 -0.73267698
-0.43316501 0.44538301 -0.72794199
-0.42397699 0.44755599 -0.73316097
-0.421976 0.468418 -0.786026
-0.381446 0.44837099 -0.727669
-0.38754201 0.44213399 -0.72149497
-0.36782801 0.442435 -0.72521198
-0.387582 0.43828601 -0.71863103
-0.59147298 0.43332201 -0.72403002
-0.60949302 0.43569899 -0.73243099
-0.65162402 0.45931599 -0.7852
-0.66050798 0.46355501 -0.795578
-0.65606397 0.62433702 -0.16721199
-0.504664 0.56796998 -0.154254
-0.364824 0.565965 -0.13387699
-0.333619 0.58060801 -0.125209
-0.381522 0.61222798 -0.137474
-0.342996 0.61028999 -0.12562101
-0.915371 0.64937103 -0.19653399
-0.40043399 0.61436999 -0.14105301
-0.127084 0.60763901 -0.85446101
-0.2086 0.61637503 -0.866
-0.208601 0.59987903 -0.85958201
-0.297838 0.61190999 -0.86764401
-0.461788 0.60934901 -0.86691099
-0.36793399 0.60987198 -0.86618602
-0.298958 0.59917098 -0.86276501
-0.0373157 0.61971599 -0.84448898
0.062424 0.64087099 -0.82261199
-0.368294 0.60011202 -0.86244601
-0.12898999 0.62338102 -0.86080199
-0.041019 0.63449502 -0.85093302
0.066239402 0.657408 -0.826603
0.097927399 0.650141 -0.80826497
0.105683 0.66807902 -0.81202
0.114319 0.67009902 -0.81841803
0.13830499 0.747648 -0.82255799
0.129127 0.74826998 -0.81508499
0.15348201 0.82569897 -0.82742101
0.088685602 0.75139898 -0.82362199
0.14477 0.82870698 -0.81962699
0.17122599 0.82745802 -0.895666
0.15594301 0.74774301 -0.90476
0.132322 0.670654 -0.91793901
0.106958 0.65328097 -0.81421798
0.097223103 0.633443 -0.80833298
0.088323601 0.62850398 -0.80066502
0.071485303 0.61853498 -0.80366403
0.054593399 0.61080498 -0.80664098
0.015863899 0.598755 -0.81273198
-0.022919299 0.58896202 -0.81879503
-0.116115 0.57408297 -0.82654899
-0.20872401 0.56253302 -0.83421803
-0.0239686 0.59236002 -0.81749302
-0.116692 0.57752198 -0.82549602
-0.208718 0.566392 -0.83322603
-0.30291501 0.55507201 -0.83908898
-0.30115601 0.552113 -0.84022701
-0.385912 0.54839301 -0.845245
-0.38698399 0.54469699 -0.84649199
-0.39842501 0.549725 -0.84580702
-0.39994499 0.54624301 -0.84713799
-0.44880399 0.56213301 -0.85428298
0.015119 0.60229099 -0.81172103
0.054156601 0.61448699 -0.80594599
0.072108999 0.62223101 -0.80303001
0.090064302 0.63227302 -0.800093
-0.84253699 0.51817203 0.160712
-0.76004601 0.480322 0.162086
-0.8337 0.526501 0.159932
-0.64089102 0.52674001 0.15291201
-0.65981603 0.47600001 0.157795
-0.603625 0.52233499 0.14478999
-0.29581699 0.48124301 0.748074
-0.30414 0.48063099 0.74809498
-0.58082199 0.44096401 0.68948197
-0.43316999 0.44541499 0.684699
-0.42397699 0.44757599 0.68991297
-0.38146299 0.44836801 0.68445301
-0.370747 0.44597101 0.68369102
-0.289756 0.47743499 0.749255
-0.36782601 0.44241801 0.68200397
-0.38758799 0.43829101 0.67542797
-0.38754201 0.44210699 0.67835599
-0.58799899 0.43763 0.684048
-0.58792502 0.44266099 0.69446099
-0.605744 0.44039199 0.692945
-0.59148598 0.433321 0.68080199
-0.60950398 0.43567801 0.68926501
-0.66049403 0.46355599 0.752388
-0.65161097 0.45933399 0.74197203
-0.64221299 0.45950601 0.74183202
-0.59003001 0.444453 0.69895899
-0.65163302 0.46373299 0.75225401
-0.59078097 0.46492499 0.74775898
-0.588009 0.46796399 0.75742698
-0.577555 0.470824 0.76391
-0.43053299 0.47511899 0.75885099
-0.42489299 0.47205299 0.75268501
-0.42197099 0.468438 0.74280298
-0.58410102 0.440285 -0.74539798
-0.58219802 0.43772799 -0.739227
-0.429607 0.462659 -0.78802299
-0.43104699 0.46446499 -0.79274499
-0.434567 0.465213 -0.794819
-0.57815599 0.462136 -0.797351
-0.581806 0.46116301 -0.79540801
-0.58339298 0.459169 -0.79078799
0.351879 1.08507 -0.84723002
0.38659799 1.09015 -0.83890003
0.515037 0.97084802 -0.70903498
-0.58408898 0.44029 0.70219302
-0.58218801 0.437722 0.69602901
-0.583399 0.459151 0.747612
-0.58181697 0.461137 0.752253
-0.57817 0.46215001 0.75414801
-0.434553 0.46520701 0.75163603
-0.431041 0.46446401 0.74953902
-0.42960501 0.46264201 0.74482203
-0.40075901 0.505436 -0.857844
-0.456909 0.479305 -0.921444
0.083847202 0.57908201 -0.91798401
0.0553337 0.54702699 -0.91799599
0.0140684 0.51612502 -0.91800201
0.0141048 0.53606498 -0.83073997
-0.025317101 0.50184399 -0.91822398
-0.025255701 0.52153498 -0.834409
-0.216298 0.508497 -0.849338
0.335527 1.22 -0.74428201
0.33763999 1.22325 -0.74144202
0.34088901 1.22525 -0.73953599
0.151521 0.92775702 -0.81048602
0.0116008 0.92123598 -0.82854402
0.0118419 0.91494501 -0.82503998
0.151805 0.935574 -0.81204599
0.149599 0.90019602 -0.80501401
0.0126524 0.90065098 -0.82303101
0.0138855 0.89102101 -0.82606697
0.14951099 0.89371902 -0.80702102
0.161716 0.96047503 -0.82612598
0.163571 1.00878 -0.854496
0.154687 1.00642 -0.84676999
0.157179 1.03803 -0.89287901
0.0113519 0.987225 -0.860493
0.0354295 1.01811 -0.904616
-0.057892799 0.97796297 -0.867127
-0.094631702 0.99771899 -0.91783702
-0.2105 0.95739597 -0.88078701
-0.241257 0.97588003 -0.93354797
-0.410721 0.93041599 -0.89805502
-0.052782901 0.93702602 -0.847498
0.011516 0.94513398 -0.84014302
0.15364701 0.96247 -0.82275897
0.0277202 0.389137 0.69753098
-0.83975399 0.88712698 -0.95377499
-0.84165299 0.88618898 -0.95519203
-0.84352303 0.89180303 -0.96477503
-0.84760302 0.890432 -0.966196
-0.84881997 0.88955998 -0.96676201
-0.782781 0.90732199 -0.98811102
-0.64595199 0.92201298 -0.97526997
-0.52877897 0.936333 -0.96367198
-0.39165199 0.95429802 -0.949628
0.315317 1.0409499 -0.764229
0.30755201 1.03627 -0.74971497
0.30947 1.1037 -0.71654499
0.31081301 1.1638499 -0.68657798
0.31911299 1.16589 -0.69221097
0.31681001 1.10633 -0.72617602
0.32012799 1.11191 -0.740008
0.317231 1.0493701 -0.78535903
0.33524299 1.08937 -0.84651202
0.33296001 1.09464 -0.842632
0.332973 1.14325 -0.80611497
0.334243 1.18532 -0.77293402
-0.23770399 0.48775101 -0.144343
-0.59662402 0.47742799 -0.178681
-0.60270202 0.47558901 -0.179352
-0.59719402 0.47553799 -0.176705
-0.23688801 0.48675099 -0.142157
-0.208553 0.48898399 -0.14662699
-0.087675497 0.49421301 -0.145013
0.095569603 0.50647497 -0.152641
0.32391399 0.68609703 -0.169084
0.32480401 0.685018 -0.166436
0.0961693 0.504812 -0.15006
-0.087561399 0.492569 -0.14233901
-0.60345602 0.473802 -0.177406
-0.60461003 0.47219601 -0.159676
-0.59824997 0.47380099 -0.159125
-0.230267 0.48729801 -0.113138
-0.084428698 0.49285001 -0.104079
0.0984056 0.50210702 -0.094698802
0.325905 0.70110297 -0.098639801
-0.64356202 0.45442599 -0.184183
-0.65773302 0.44800299 -0.185607
-0.758564 0.45330301 -0.190653
-0.77443999 0.45647901 -0.19141699
-0.87863201 0.51104099 -0.196448
-0.87970698 0.523193 -0.195898
-0.84955603 0.54558599 -0.193424
-0.64262497 0.451709 -0.160871
-0.64320201 0.45317999 -0.181086
-0.657556 0.44695199 -0.182464
-0.75894701 0.45227301 -0.18753301
-0.77485698 0.45540801 -0.18832199
-0.87991297 0.51102102 -0.194066
-0.8811 0.52293599 -0.19347399
-0.77552497 0.45607001 -0.17595799
-0.75976002 0.45275599 -0.17464
-0.65837401 0.44749799 -0.163417
-0.36815 0.58738601 -0.131935
-0.51072103 0.56092697 -0.160871
-0.56831801 0.55454898 -0.156636
-0.56736702 0.55074799 -0.167895
-0.63187402 0.55066198 -0.159491
-0.633838 0.54975402 -0.17268901
-0.840464 0.550219 -0.189468
-0.83923399 0.55138397 -0.16654401
-0.85026801 0.54678202 -0.190476
-0.85310602 0.54659301 -0.16910701
-0.87944102 0.52057803 -0.17995501
-0.87744999 0.51279998 -0.181765
-0.840087 0.54893798 -0.19245701
-0.63430703 0.54865003 -0.175969
-0.566715 0.54873598 -0.170433
-0.51024503 0.558963 -0.163416
-0.36546099 0.58704299 -0.135886
-0.33877099 0.59266299 -0.124613
-0.33607301 0.591932 -0.130501
0.30664 0.72803998 -0.080275796
0.30538699 0.73112899 -0.021535
0.30666399 0.72804803 0.037215099
0.287532 0.71260899 0.036626302
0.28983501 0.71503198 -0.021542801
0.287559 0.71259499 -0.079698898
-0.84253001 0.51817602 -0.204244
-0.76005799 0.48031399 -0.205635
-0.659796 0.47599101 -0.201344
-0.83370101 0.52649802 -0.203485
-0.64099199 0.52674699 -0.196466
-0.60341603 0.51883799 -0.188619
-0.0888853 0.87527502 -0.83378297
-0.076451898 0.88574803 -0.829925
-0.047477599 0.90963 -0.83080298
-0.0474183 0.91246903 -0.83212399
-0.20895299 0.85075402 -0.84455299
-0.209224 0.86035299 -0.84160298
-0.21048599 0.88319403 -0.841447
-0.21059901 0.887519 -0.84259897
-0.21088 0.90399599 -0.84877902
-0.408335 0.85713702 -0.85183603
-0.408021 0.852736 -0.85074103
-0.40628701 0.823457 -0.849271
-0.405963 0.81441802 -0.852934
-0.49324 0.83830899 -0.84871799
-0.49547201 0.841263 -0.84965402
-0.49423 0.86665303 -0.85856199
-0.409356 0.87292099 -0.854949
-0.49205899 0.89252198 -0.870507
-0.410763 0.89488697 -0.86562097
-0.270493 0.58615702 -0.0541334
-0.27493599 0.588076 -0.056411199
-0.27719799 0.58884799 -0.0607251
-0.285923 0.591142 -0.077684
-0.28891701 0.59227002 -0.0819479
-0.29322699 0.594136 -0.083795004
-0.34079301 0.61378902 -0.087967202
-0.33899999 0.61393797 0.0447632
-0.29323599 0.59414798 0.040595401
-0.28890699 0.59226102 0.038754702
-0.28593099 0.59115601 0.0344841
-0.277226 0.58887798 0.0175207
-0.27494499 0.588081 0.0132065
-0.27048299 0.58615297 0.0109355
-0.218905 0.56964701 0.00103616
-0.21623699 0.56855398 -0.00081628701
-0.215409 0.56811899 -0.0055649201
-0.215565 0.56898701 -0.0216038
-0.215396 0.568111 -0.037631501
-0.21625599 0.56856698 -0.042388398
-0.218924 0.56967002 -0.044237301
-0.85712302 1.0121599 0.43481001
-0.85777599 1.01552 0.42302701
-0.79338801 0.77445298 0.57600302
-0.78718501 0.77448702 0.63061601
-0.68420702 0.77218002 -0.021601301
-0.66624397 0.76315999 -0.021598401
-0.68611902 0.76993698 -0.0215995
-0.854922 1.0085 0.334941
-0.85566097 1.01186 0.357833
-0.85547799 1.01105 0.35782099
-0.85308498 0.99991697 0.331209
-0.85308403 0.999964 0.32788199
-0.85313201 1.00043 0.297126
-0.85158199 0.99312699 0.29281801
-0.85297 0.99972701 0.29339099
-0.85267103 0.99834001 0.28952599
-0.85127997 0.99187702 0.28942001
-0.85229897 0.99659598 0.28635699
-0.85172898 0.99398798 0.283048
-0.85074401 0.98936599 0.286071
-0.84983999 0.98550397 0.272643
-0.848818 0.98075801 0.27537799
-0.84800601 0.97699201 0.26308399
-0.85504198 1.00905 0.334546
-0.85285801 0.99919599 0.289529
-0.85243499 0.99725401 0.28591999
-0.85640001 1.01168 0.35781199
-0.85580701 1.00889 0.334555
-0.854096 1.00115 0.29766899
-0.85392499 1.0003901 0.29346099
-0.85361099 0.999008 0.289518
-0.853221 0.99708903 0.28592199
-0.852633 0.99447799 0.282617
-0.85075998 0.98603302 0.27225199
-0.848167 0.97773302 0.26272401
-0.84894502 0.977575 0.262716
-0.84687501 0.96784699 0.25352401
-0.84400302 0.958206 0.24474201
-0.84478199 0.95805401 0.244752
-0.84257799 0.94790602 0.236534
-0.84048003 0.938061 0.22857299
-0.83816803 0.92736202 0.220364
-0.84594399 0.96734101 0.253968
-0.84390599 0.95767403 0.245325
-0.84172499 0.94762897 0.23718899
-0.83963102 0.93785101 0.229283
-0.837336 0.92728698 0.221165
-0.83498102 0.91632199 0.213918
-0.83502901 0.91646999 0.21311399
-0.834068 0.91201502 0.212586
-0.832151 0.90284002 0.223415
-0.831384 0.89951199 0.215691
-0.83340597 0.90888703 0.221333
-0.83314598 0.9077 0.21252701
-0.83407998 0.91190201 0.22101399
-0.83472598 0.91493702 0.221975
-0.83692199 0.92522401 0.228102
-0.83896101 0.93484199 0.234778
-0.83404797 0.91202903 0.21177299
-0.83311099 0.90758401 0.21171699
-0.83134598 0.89920801 0.21499699
-0.82950002 0.89062101 0.219401
-0.829422 0.890302 0.218676
-0.82896799 0.88820899 0.21953601
-0.82936198 0.886271 0.220266
-0.82665497 0.87358499 0.22641499
-0.82404 0.86506599 0.231673
-0.828686 0.886783 0.22100399
-0.82599503 0.87413502 0.227137
-0.82232898 0.85696697 0.237497
-0.82220203 0.85640597 0.236921
-0.82209301 0.85558301 0.23903
-0.82481599 0.86490297 0.231682
-0.82297498 0.85624403 0.236937
-0.82271498 0.854837 0.238426
-0.82176203 0.85426801 0.240962
-0.82250798 0.85409302 0.24093799
-0.82191002 0.85432202 0.324202
-0.82266098 0.854155 0.32418299
-0.82217401 0.85517901 0.32871899
-0.82292497 0.855012 0.32871401
-0.82246298 0.85683298 0.3326
-0.82323003 0.85666502 0.33259401
-0.82422501 0.86495399 0.344944
-0.82191002 0.85494798 0.241657
-0.822052 0.85505599 0.32376099
-0.82230198 0.85585999 0.32830501
-0.82259297 0.857503 0.33219799
-0.82437199 0.86574799 0.34477001
-0.82494003 0.86834198 0.353205
-0.82477599 0.86751401 0.35332999
-0.82498002 0.86805499 0.41014999
-0.82358998 0.86275399 0.24337301
-0.82330799 0.86126399 0.244767
-0.82308102 0.86035198 0.247099
-0.82313502 0.86004502 0.320905
-0.82337898 0.86092198 0.32539299
-0.823681 0.86258298 0.32926801
-0.82571399 0.87197798 0.34368801
-0.82384998 0.86333299 0.243937
-0.82360297 0.86184502 0.245434
-0.82338202 0.86105198 0.247967
-0.82344198 0.86079901 0.320366
-0.82369298 0.86163098 0.32491499
-0.82400101 0.863289 0.32886699
-0.82608801 0.872895 0.34359899
-0.82870197 0.88497102 0.36214799
-0.825266 0.86986202 0.24017701
-0.825544 0.87068599 0.41013601
-0.825728 0.87166703 0.397414
-0.82634902 0.87461102 0.38669899
-0.82697701 0.87752402 0.37855899
-0.82741302 0.879592 0.37382999
-0.827613 0.880588 0.368653
-0.82865399 0.88554901 0.36441201
-0.82843298 0.88452297 0.36292499
-0.82890803 0.88598698 0.36359599
-0.82574701 0.87167102 0.42288199
-0.82635701 0.874605 0.43360001
-0.824956 0.86834103 0.467103
-0.82696599 0.87752903 0.441764
-0.82739598 0.87958503 0.446504
-0.82762098 0.88059998 0.451664
-0.82867002 0.885553 0.45587599
-0.82843298 0.88453603 0.45737299
-0.82892799 0.88597703 0.456718
-0.82867903 0.88496798 0.458159
-0.82608598 0.87289798 0.476722
-0.82337302 0.86092401 0.49491599
-0.82369298 0.86258501 0.49103901
-0.824 0.86329597 0.491456
-0.82573402 0.87199402 0.476639
-0.824395 0.86574697 0.475532
-0.82261097 0.857508 0.48811001
-0.82231498 0.85586298 0.492001
-0.82191199 0.85432899 0.496124
-0.82268697 0.854164 0.49611399
-0.82251602 0.85408998 0.57934898
-0.822743 0.85483801 0.581882
-0.822963 0.85623801 0.58334601
-0.82292801 0.85500801 0.49159801
-0.82478601 0.86751997 0.46700701
-0.82553202 0.86733598 0.353297
-0.82497901 0.864779 0.34489799
-0.825611 0.86711699 0.410157
-0.82555097 0.86735398 0.46698201
-0.82496798 0.864779 0.47536901
-0.82322198 0.85665703 0.48769099
-0.85298699 0.99972802 0.52691001
-0.85314298 1.00043 0.52316803
-0.85505599 1.00905 0.48576501
-0.85493499 1.0085 0.48537001
-0.85565698 1.01184 0.46247801
-0.85547 1.01106 0.46246001
-0.85308599 0.999919 0.48906299
-0.853082 0.99997503 0.49240601
-0.85156697 0.99312699 0.52749699
-0.85267502 0.99833602 0.53080201
-0.85128897 0.99186897 0.53086001
-0.85228097 0.99659598 0.53394502
-0.851731 0.99397999 0.53723902
-0.85128802 0.99101502 0.53069299
-0.85155898 0.99234301 0.52724802
-0.853091 0.99916399 0.49247801
-0.853055 0.99905801 0.48938999
-0.85074198 0.98861301 0.53376698
-0.84883898 0.97995597 0.54453099
-0.83903199 0.93440998 0.58473098
-0.841061 0.94366902 0.57751298
-0.84101599 0.94419301 0.57822597
-0.84302902 0.95357198 0.57086402
-0.84305 0.95292199 0.57026303
-0.84496599 0.96265203 0.56299698
-0.84496301 0.96188003 0.56250602
-0.84687299 0.97170198 0.554609
-0.84684801 0.97081 0.55424899
-0.84882599 0.980766 0.54492903
-0.850761 0.98937899 0.53422099
-0.84982502 0.98551399 0.54763401
-0.84800202 0.976996 0.55721098
-0.84595501 0.96733898 0.566329
-0.84390098 0.95766097 0.57499403
-0.84174502 0.94764298 0.58314002
-0.83898401 0.93484998 0.58553499
-0.83704197 0.92496699 0.591299
-0.84996098 0.98619598 0.54802799
-0.85187697 0.99466097 0.53768897
-0.85242802 0.99725801 0.53439403
-0.85314697 1.00056 0.52682698
-0.85264897 0.99448699 0.53768802
-0.85319901 0.99708498 0.534392
-0.85363001 0.99903101 0.53077698
-0.85391599 1.0003901 0.52682501
-0.85409802 1.00115 0.52262098
-0.85580897 1.00888 0.485744
-0.85643101 1.01169 0.462495
-0.850761 0.98602903 0.548069
-0.84893101 0.97757101 0.55759001
-0.84685999 0.96783799 0.56677902
-0.84400499 0.95820898 0.57553101
-0.84478402 0.95805103 0.575535
-0.84258002 0.94791001 0.583731
-0.84045899 0.93804902 0.59172702
-0.83816999 0.92736799 0.59994298
-0.83140802 0.899517 0.60458601
-0.83315301 0.907713 0.60778499
-0.83312601 0.90758097 0.60856402
-0.83406299 0.91202199 0.608522
-0.83406699 0.91203099 0.607723
-0.83501703 0.916475 0.60718101
-0.83497399 0.91631699 0.606363
-0.83736199 0.92728698 0.599145
-0.83962601 0.93785203 0.59104401
-0.83213902 0.90284002 0.59687299
-0.83341199 0.90889001 0.59898198
-0.83407998 0.91190499 0.59932297
-0.83470798 0.91491699 0.59830898
-0.83692199 0.92522401 0.59217399
-0.83485597 0.91478902 0.597449
-0.83422899 0.91186702 0.598418
-0.833606 0.90894997 0.59809703
-0.83238101 0.90316701 0.59609598
-0.83026999 0.89339602 0.59184802
-0.83000499 0.89287901 0.59255898
-0.82973301 0.89087802 0.59076101
-0.82954699 0.89080501 0.59164202
-0.827106 0.87862003 0.58488101
-0.82525802 0.86986101 0.58014101
-0.82685202 0.87821603 0.58560997
-0.82386398 0.86334097 0.57633901
-0.82356697 0.86275101 0.576913
-0.82358801 0.86184502 0.57484001
-0.82331902 0.86126602 0.57554102
-0.82336402 0.86105299 0.57231998
-0.82306403 0.86034799 0.57321101
-0.823439 0.86078697 0.49990401
-0.82312101 0.86004102 0.499401
-0.823686 0.86164302 0.49537501
-0.82204998 0.85506099 0.496519
-0.821908 0.85495102 0.57868099
-0.82209599 0.855582 0.58129901
-0.82234001 0.85696602 0.58282697
-0.825993 0.87412602 0.59319597
-0.82867998 0.88677102 0.59931701
-0.82950002 0.89062399 0.60089898
-0.822209 0.85641497 0.58336198
-0.82482702 0.86491197 0.58862901
-0.82404399 0.86508101 0.58858401
-0.82666999 0.87358898 0.59386301
-0.829382 0.88629001 0.600025
-0.82896203 0.88821501 0.60073698
-0.82942998 0.890293 0.60161299
-0.86256897 1.01522 0.39734501
-0.85725403 1.0163701 0.39738199
-0.86208999 1.01215 0.372327
-0.85685199 1.01326 0.44798499
-0.83020502 0.89019698 0.60165
-0.83470398 0.88513499 0.60004699
-0.82975602 0.88807398 0.60077399
-0.83211201 0.89904398 0.60531402
-0.83390599 0.90743798 0.60857499
-0.83484501 0.91185802 0.60853201
-0.83577698 0.91631401 0.60719001
-0.83000898 0.89289099 0.227755
-0.82957 0.89080799 0.22866599
-0.826873 0.878218 0.23468
-0.82710803 0.87860698 0.235406
-0.82972598 0.89088702 0.22952799
-0.83028501 0.89339501 0.228444
-0.83237302 0.90316099 0.224191
-0.833588 0.90894997 0.22219899
-0.834234 0.91185999 0.221893
-0.83486599 0.91477603 0.22287101
-0.83704102 0.924968 0.22896899
-0.83903998 0.934412 0.235548
-0.84102899 0.94419998 0.242109
-0.84301001 0.95357603 0.249441
-0.84495401 0.96264797 0.25731301
-0.84687698 0.97171402 0.265697
-0.84107 0.94367301 0.242807
-0.84305799 0.95293301 0.25005201
-0.84496498 0.96188003 0.25780499
-0.84685701 0.97082901 0.26605099
-0.84880501 0.97995102 0.27577001
-0.85077202 0.98862797 0.28654599
-0.85126299 0.99100399 0.28960699
-0.85155201 0.99233299 0.293037
-0.85310102 0.99916101 0.327847
-0.853073 0.99905097 0.33089501
-0.47055799 0.69843 -0.058737598
-0.47078601 0.69876403 -0.056554101
-0.489553 0.70648903 -0.060052399
-0.51722598 0.71820301 -0.061985999
-0.51721901 0.71841902 -0.059797201
-0.489728 0.70675802 -0.0578891
-0.517223 0.71840698 0.016604301
-0.470783 0.69874603 0.0133591
-0.48972899 0.70678198 0.0146763
-0.51722801 0.71820098 0.0187872
-0.48955601 0.70648199 0.0168576
-0.470557 0.69842499 0.0155403
-0.84553599 0.98400998 0.346863
-0.84322101 0.97342998 0.34096599
-0.88298398 0.96571898 0.33898699
-0.88045102 0.95403397 0.334856
-0.87779701 0.94184202 0.33276501
-0.84078002 0.96209103 0.33696201
-0.839872 0.96147603 0.34008101
-0.842233 0.97233599 0.34391701
-0.84442699 0.98244202 0.349554
-0.84756899 0.99348402 0.35444799
-0.84639698 0.991521 0.35683
-0.849356 1.0016299 0.36358899
-0.84810501 0.99931902 0.36557299
-0.85075998 1.0082 0.37392899
-0.849446 1.00559 0.375469
-0.85180801 1.0130301 0.38528201
-0.85045898 1.0102299 0.386345
-0.85247397 1.01601 0.42200801
-0.85268903 1.0169899 0.40966699
-0.89265901 1.01051 0.40962401
-0.892474 1.0095 0.39695299
-0.852449 1.01599 0.39728799
-0.891783 1.0064501 0.384563
-0.890715 1.00148 0.372897
-0.88925999 0.99472398 0.362248
-0.887447 0.98634398 0.352869
-0.88533902 0.97659701 0.34505099
-0.85108 1.01307 0.39783901
-0.85129601 1.01402 0.409668
-0.85105997 1.01307 0.42145601
-0.85182703 1.01307 0.434001
-0.85047799 1.01028 0.43296999
-0.85077697 1.00825 0.44535401
-0.84946901 1.00567 0.44384801
-0.84934598 1.00169 0.45574099
-0.84810001 0.999385 0.453769
-0.84761101 0.99357998 0.464883
-0.84641802 0.99161202 0.462495
-0.84078503 0.962201 0.48241001
-0.84325999 0.973562 0.47840101
-0.88299602 0.965837 0.480398
-0.885337 0.97669202 0.47429299
-0.84555 0.98412299 0.472498
-0.88746399 0.98644602 0.46648699
-0.88928199 0.994798 0.45709401
-0.89072597 1.0015301 0.44638601
-0.89181697 1.00649 0.43473801
-0.89243698 1.00951 0.42233601
-0.844464 0.98255301 0.469807
-0.842264 0.972449 0.47544599
-0.83990198 0.96158099 0.479294
-0.83823699 0.95036602 0.48449299
-0.83745003 0.950266 0.48126301
-0.83563501 0.93836701 0.484494
-0.83497202 0.93878102 0.48127601
-0.83308202 0.92651802 0.48248699
-0.83249998 0.92745 0.47932899
-0.83060002 0.91517198 0.47846299
-0.83015001 0.916565 0.475492
-0.82449198 0.88697499 0.45584899
-0.826262 0.89513201 0.464973
-0.86549199 0.88512498 0.46655801
-0.867603 0.894871 0.47438401
-0.82830101 0.90459102 0.47254601
-0.86995298 0.90575099 0.48043501
-0.87249702 0.91744202 0.48457599
-0.87515199 0.92961597 0.48666501
-0.87781799 0.941971 0.48665199
-0.88044101 0.95414698 0.484543
-0.82795203 0.90646899 0.46984801
-0.82599801 0.897394 0.46259001
-0.82430702 0.88960499 0.453859
-0.82305598 0.88039798 0.44546399
-0.82295197 0.883313 0.443941
-0.82203001 0.87557501 0.434145
-0.82193702 0.87867898 0.433079
-0.82138902 0.87262201 0.42211601
-0.82134497 0.87586999 0.42161
-0.82116503 0.87161398 0.40976101
-0.82111198 0.87490398 0.40976
-0.82307601 0.88035899 0.37407801
-0.82201701 0.87552798 0.38539901
-0.86114597 0.86497599 0.38472199
-0.86046201 0.86194998 0.397044
-0.82136798 0.87260002 0.39740899
-0.86025101 0.86093998 0.409787
-0.86045599 0.86195803 0.42247701
-0.86114001 0.86500502 0.434852
-0.862212 0.86998397 0.446518
-0.86367297 0.87675601 0.45718101
-0.82133597 0.87583297 0.39796901
-0.82192701 0.87865502 0.386444
-0.82294101 0.88324702 0.37558901
-0.82446498 0.88690501 0.36365801
-0.824292 0.88953298 0.36565399
-0.82622999 0.895024 0.354534
-0.82598901 0.89730299 0.35693201
-0.82828897 0.90449703 0.34692401
-0.82793999 0.906367 0.34963
-0.83056098 0.915048 0.34101099
-0.830109 0.91645998 0.343961
-0.83820403 0.95023102 0.33491999
-0.83559799 0.93823099 0.33493701
-0.875099 0.92948103 0.33275899
-0.87246102 0.91730899 0.33487999
-0.83305699 0.92641097 0.33700401
-0.86992502 0.90562999 0.33901599
-0.86758298 0.89477199 0.345099
-0.865475 0.88503498 0.352943
-0.86368501 0.87667698 0.36235601
-0.86220199 0.869914 0.37301499
-0.832488 0.92732501 0.340123
-0.83494598 0.93865299 0.33815601
-0.83742702 0.95014697 0.338139
-0.69182599 0.76447499 -0.133993
-0.78720599 0.77452898 0.63066202
-0.79343098 0.77449298 0.576047
-0.69181699 0.76447999 0.090792403
-0.85709798 1.0121599 0.38549399
-0.85778701 1.01552 0.397311
-0.69039202 0.76719898 -0.021602901
-0.85276997 0.992001 0.35408601
-0.85292399 0.99275601 0.35469899
-0.85466099 1.00085 0.363821
-0.85606903 1.00734 0.37413099
-0.85608101 1.00735 0.44616601
-0.85466403 1.0008399 0.45646301
-0.852929 0.99275601 0.46561199
-0.85274702 0.99201 0.466198
-0.85802102 1.00485 0.46148899
-0.83316499 0.88981098 0.223938
-0.82819599 0.86652702 0.58445102
-0.83315903 0.88981497 0.596389
-0.85799998 1.00483 0.35883
-0.82820898 0.86653501 0.23586901
-0.83577597 0.91629797 0.213108
-0.83484697 0.91186899 0.21178199
-0.83389598 0.90743399 0.21172801
-0.83209002 0.89904898 0.214976
-0.830217 0.89019799 0.21865
-0.829763 0.88807702 0.219538
0.13769899 0.470404 -0.13676
-1.00326 0.30389801 0.50920802
-1.03532 0.35954601 0.55660599
-1.05207 0.35953 0.52787298
-1.05501 0.34552401 0.32475701
-1.0823801 0.40216899 0.325104
-1.15116 0.61380702 0.32470599
-1.6636 0.95352203 -0.32504201
-1.6688499 0.951141 -0.182797
-1.67592 0.932033 -0.0216003
-1.61773 0.95877999 -0.0216118
-1.3706599 0.97648603 -0.0215995
-1.66881 0.951132 0.139621
-1.6636 0.95352 0.281856
-1.6624 0.95375699 0.290342
-1.65948 0.95420802 0.29902601
-1.62486 0.95906901 0.379994
-1.57154 0.96668601 0.50312001
-0.66101903 0.92712402 0.61103702
-0.66070098 0.92651999 0.20584001
-0.86157101 0.89888 0.95230001
-0.99410701 1.05958 0.86233801
-1.0201499 1.0477 0.86993498
-0.96954101 0.952003 0.87699401
-0.98239702 0.96709502 0.92144197
-0.96575099 0.98116302 0.858266
-0.97690099 1.00904 0.89714199
-0.97282398 1.04014 0.87777698
-0.96196699 1.01035 0.83616698
-0.97208798 1.0458601 0.87388402
-0.95952398 1.02914 0.81741101
-0.97258401 1.04954 0.87126499
-0.95708001 1.04794 0.793625
-0.97488302 1.05379 0.86753899
-0.978778 1.05758 0.86417401
-0.98410898 1.05985 0.86230302
-0.98961502 1.06055 0.86164701
-0.95219499 0.94709301 0.86863202
-0.94834799 0.98096001 0.848526
-0.94451702 1.01485 0.825014
-0.94171798 1.03627 0.80383903
-0.93892998 1.05767 0.77771002
-0.88146102 1.08772 0.76226801
-0.86885297 1.08825 0.76435399
-0.87247199 1.05474 0.79733598
-0.88509101 1.0539 0.79528099
-0.88873702 1.02007 0.82331997
-0.89208698 0.98657101 0.846506
-0.89541298 0.95308697 0.86625099
-0.90163499 0.898269 0.898256
-0.95723999 0.90704 0.89301401
-0.90205503 0.89257199 0.89704901
-0.95907801 0.90232003 0.89318597
-0.879466 0.987831 0.84912401
-0.88279402 0.95441902 0.86950499
-0.88818198 0.89630997 0.903
-0.88671398 0.89036202 0.90239203
-0.90157801 0.88648802 0.89422703
-0.88369399 0.88591999 0.90139401
-0.87726003 0.883847 0.89421397
-0.85474098 0.88447702 0.91062099
-0.85287601 0.88008898 0.910317
-0.85362297 0.88265997 0.916601
-0.85090703 0.87781501 0.912664
-1.14473 0.93752003 0.868815
-0.99351001 0.90238303 0.87143803
-0.90453702 0.88279003 0.87368399
-0.89740598 0.88172102 0.87718201
-0.87569499 0.88095897 0.89225
-0.97529 0.91163599 0.90362197
-0.97579801 0.90648699 0.90270603
-0.964517 0.89777601 0.89251202
-0.97977799 0.90172797 0.90060103
-0.99343401 0.90479398 0.87362701
-0.90368998 0.88530302 0.87655699
-1.14355 0.93980998 0.87150002
-1.19524 0.96050102 0.93251401
-1.19405 0.95789403 0.93394899
-1.19143 0.95652598 0.93461502
-1.09663 0.93723702 0.94056398
-1.00036 0.920771 0.94601202
-0.98871201 0.91875899 0.94666803
-0.98761302 0.92729998 0.94223702
-1.1684 0.63174099 0.34275499
-1.20337 0.74372202 0.341645
-0.94280601 0.67491102 0.30591601
-0.794393 0.71061897 0.305944
-0.69820899 0.73497802 0.30588099
-0.67667198 0.74346 0.30590501
-0.65381801 0.76491898 0.30589101
-0.67602098 0.83740199 0.30629101
-0.64733303 0.74430197 0.320831
-0.66811502 0.72426099 0.320824
-0.69036603 0.71512097 0.32082501
-0.64336801 0.73172402 0.34489
-0.66622001 0.71028298 0.344888
-0.68778998 0.70179999 0.34491399
-0.79088598 0.69013602 0.32084599
-0.78395599 0.67743099 0.344937
-0.78293598 0.67418402 0.408822
-0.78394902 0.67743498 0.46963599
-0.687774 0.70180202 0.46965
-0.66622901 0.71028298 0.469688
-0.64260501 0.72749001 0.42773899
-0.64337099 0.73172402 0.46969
-0.64220399 0.73452002 0.46805999
-0.79438901 0.71061897 0.50863302
-0.79091102 0.69012398 0.49373701
-0.69822502 0.73497701 0.508672
-0.690377 0.71512502 0.49376899
-0.66811901 0.72426099 0.49375501
-0.67667401 0.74346697 0.50867802
-0.64733702 0.74429601 0.493754
-0.65382999 0.76490903 0.50868601
-0.652448 0.767147 0.50633597
-0.64646798 0.74807101 0.49356899
-0.94278502 0.674927 0.50865698
-0.676018 0.83740699 0.50832301
-1.20333 0.74372399 0.47294
-1.16843 0.63174802 0.47183001
-0.93674302 0.65428197 0.49437499
-1.1712 0.63223499 0.460605
-1.17974 0.633717 0.408804
-1.17119 0.63223398 0.353944
-0.936719 0.65428799 0.32021001
-0.84179097 0.86975503 0.344713
-0.85832 0.944709 0.246769
-0.86934102 0.99626201 0.31597501
-0.83916801 0.857678 0.276218
-0.85732001 0.98991603 0.28770199
-0.83129501 0.85768402 0.32783699
-0.84179699 0.86975098 0.47560799
-0.85832697 0.94470298 0.57353097
-0.86933601 0.99626303 0.50432301
-0.83917999 0.85768402 0.54408401
-0.85733801 0.98992598 0.53260797
-0.83126903 0.857669 0.49769801
-1.45042 0.94550002 0.249778
-1.44907 0.94539601 0.261224
-1.4385999 0.94209498 0.24811301
-1.43723 0.94205499 0.25952199
-1.43782 0.94204402 -0.30271399
-1.44973 0.9454 -0.30443099
-1.4392 0.94208503 -0.29132101
-1.4510601 0.94549698 -0.29298699
-1.0790499 0.92126501 0.80349898
-1.07047 0.882604 0.80851698
-1.07137 0.88307297 0.81065297
-1.08091 0.92141402 0.805282
-1.10296 0.92533201 0.81229198
-1.09438 0.88762701 0.81786603
-1.09527 0.88810802 0.81998903
-1.10479 0.92548001 0.81404799
-1.12247 0.92854398 0.81758702
-1.11628 0.89500397 0.82547802
-1.11717 0.89550102 0.82758898
-1.12433 0.92869103 0.819354
-1.14665 0.93295401 0.82494003
-1.14115 0.902224 0.83257198
-1.14203 0.90266597 0.83466202
-1.14847 0.93306798 0.82671398
-1.16267 0.93632901 0.83262801
-1.15377 0.908005 0.83970398
-1.1613801 0.90842903 0.84241301
-1.16452 0.93647599 0.834387
-1.07048 0.88260502 -0.85094398
-1.07903 0.92128903 -0.84667999
-1.0808901 0.92140502 -0.84846401
-1.07138 0.88307399 -0.85304999
-1.09439 0.887631 -0.861099
-1.10294 0.925354 -0.85547501
-1.1048 0.92550099 -0.85726398
-1.09527 0.88811201 -0.86319298
-1.11628 0.89500803 -0.86867303
-1.12248 0.92856401 -0.86080199
-1.1243401 0.92870998 -0.86256999
-1.11718 0.895473 -0.870785
-1.14112 0.90219301 -0.87572801
-1.14663 0.93293202 -0.86811799
-1.14845 0.933079 -0.86989301
-1.14203 0.90267402 -0.877859
-1.15374 0.907978 -0.882864
-1.16265 0.93633902 -0.87581003
-1.16449 0.93648499 -0.87757099
-1.1613801 0.90843397 -0.88560802
-1.40789 0.99061 0.81219101
0.175808 1.04106 -0.89107502
-0.79715598 0.858055 0.248868
-0.79553002 0.86117297 0.242291
-0.792243 0.86745203 0.237516
-0.78658497 0.88215899 0.229477
-0.777183 0.90545398 0.220071
-0.77151299 0.91999698 0.21587899
-0.76665902 0.932019 0.21530201
-0.76490802 0.92127597 0.2163
-0.77056402 0.90696102 0.220346
-0.77996403 0.88348001 0.229957
-0.78563499 0.86962098 0.237488
-0.78892601 0.86256599 0.243174
-0.79053301 0.85897201 0.25076801
-0.80464399 0.856745 0.32497501
-0.80570298 0.85781199 0.32901099
-0.79802799 0.85755002 0.32523
-0.79910803 0.85873097 0.32914299
-0.80068499 0.86001199 0.33309001
-0.80770099 0.85913599 0.33294201
-0.805978 0.86613798 0.34539899
-0.81260401 0.86569601 0.34523499
-0.80719602 0.86759901 0.349334
-0.813079 0.867194 0.349033
-0.80786097 0.86904502 0.466968
-0.80784601 0.86844897 0.41014901
-0.80803299 0.868752 0.410151
-0.80786997 0.869039 0.35333601
-0.80740798 0.86862099 0.35350201
-0.80667502 0.86712402 0.349558
-0.80547398 0.86566597 0.345606
-0.80009401 0.85927898 0.333316
-0.79847598 0.85801899 0.32939401
-0.797333 0.85677099 0.32543299
-0.80174297 0.84843099 0.327131
-0.80315697 0.84956503 0.331168
-0.80479598 0.85115099 0.335098
-0.809856 0.85917002 0.348281
-0.81079102 0.86091101 0.352438
-0.811239 0.861884 0.35628501
-0.81145501 0.86299902 0.41016099
-0.80414897 0.84752297 0.33151099
-0.80588198 0.84914201 0.335448
-0.81146002 0.85754699 0.348331
-0.81233603 0.85917002 0.35242701
-0.81257302 0.85997301 0.356451
-0.81246197 0.86092502 0.41014701
-0.81124097 0.86188799 0.46398601
-0.81256998 0.85997403 0.46388099
-0.81077701 0.86091101 0.46788499
-0.81233603 0.85916102 0.46789399
-0.81379902 0.85904598 0.41016099
-0.81420702 0.85835099 0.35661599
-0.81412297 0.85763401 0.352559
-0.81291503 0.855753 0.34853199
-0.80758399 0.84758502 0.33566299
-0.80596501 0.84610099 0.331664
-0.80273098 0.84633398 0.32748899
-0.80458802 0.84497398 0.32765099
-0.79604298 0.84713501 0.239402
-0.79533303 0.84890801 0.241127
-0.81318003 0.839059 0.32840201
-0.81357902 0.84040999 0.332169
-0.81401002 0.84193301 0.33635801
-0.82098299 0.85260499 0.348454
-0.82114702 0.854958 0.352294
-0.82122898 0.85564798 0.35647401
-0.82122201 0.85564703 0.410162
-0.76886302 0.93238401 0.19989701
-0.76625597 0.93317997 0.200362
-0.77326697 0.91952902 0.20083199
-0.77070397 0.92030603 0.201336
-0.77743798 0.901757 0.20703
-0.78005999 0.90025997 0.20671199
-0.78619301 0.87803102 0.216695
-0.78857398 0.87640798 0.216281
-0.792952 0.85995197 0.22590201
-0.795349 0.85757798 0.22563601
-0.79702097 0.84995002 0.231408
-0.795165 0.851825 0.23160499
-0.797683 0.845406 0.239244
-0.75895298 0.96621197 0.21921501
-0.76496899 0.94394797 0.20427901
-0.844657 0.95355898 0.20919999
-0.83222902 0.92617399 0.19230101
-0.82797998 0.91570902 0.18951599
-0.82521802 0.90517199 0.191223
-0.822851 0.88732398 0.198727
-0.81959802 0.862894 0.21175399
-0.81723702 0.84553599 0.22275101
-0.81550801 0.83884698 0.228698
-0.820499 0.83463901 0.32069701
-0.81404197 0.83567703 0.236692
-0.85639501 0.97857398 0.22854
-0.86704999 1.00298 0.24975801
-0.87713403 1.0252301 0.27348
-0.87980598 1.03054 0.28108501
-0.881495 1.0343601 0.28970399
-0.733527 1.04907 0.37266999
-0.73592001 1.0431401 0.327952
-0.87913102 1.04831 0.36968201
-0.88104099 1.04298 0.32941899
-0.73954397 1.0350699 0.28816
-0.740924 1.03148 0.279598
-0.74259698 1.02633 0.27194101
-0.74757701 1.00798 0.25237599
-0.75305301 0.987059 0.23469201
-0.73724002 1.03502 0.28812101
-0.73860198 1.03145 0.27958801
-0.74029702 1.02632 0.271956
-0.74524498 1.00806 0.25248501
-0.75063002 0.987212 0.23488
-0.75649601 0.96657401 0.21955299
-0.76242399 0.94467098 0.20476
-0.733666 1.04312 0.327952
-0.73300999 1.04092 0.32808101
-0.73653901 1.03317 0.28959799
-0.73787701 1.0297101 0.28096899
-0.73950601 1.02464 0.27328399
-0.744443 1.00615 0.25355199
-0.74967498 0.985964 0.236554
-0.75533199 0.96601897 0.221692
-0.76114601 0.94481701 0.20725399
-0.73450798 1.02121 0.28771901
-0.73585099 1.01632 0.27982199
-0.74113703 0.99787599 0.258255
-0.745637 0.98044503 0.243947
-0.75039101 0.963507 0.23130301
-0.75524998 0.94540399 0.219154
-0.75870901 0.93416202 0.214486
-0.76514798 0.933339 0.202611
-0.76326299 0.92142302 0.21529301
-0.76968801 0.92044097 0.203412
-0.733468 1.02463 0.29637399
-0.73430902 1.02354 0.29706699
-0.73532897 1.02013 0.28841701
-0.73663902 1.01527 0.28052399
-0.74185199 0.99650598 0.25865301
-0.74632001 0.97954202 0.244817
-0.75102401 0.96317899 0.232465
-0.75583899 0.94506598 0.22011399
-0.760019 0.93388402 0.21551
-0.74194801 1.01898 0.288486
-0.74324298 1.01411 0.280653
-0.74848503 0.99537897 0.258919
-0.75290698 0.97806102 0.244784
-0.75762498 0.96136397 0.23217601
-0.76244199 0.94275302 0.219551
-0.73525298 1.03519 0.41470501
-0.73518699 1.0354199 0.40895599
-0.73524201 1.03518 0.40319601
-0.73555201 1.03395 0.37338501
-0.73778099 1.02871 0.32938001
-0.74093503 1.02235 0.29712299
-0.73117298 1.02981 0.32911399
-0.72893298 1.03505 0.37355301
-0.728643 1.03623 0.403189
-0.728585 1.03643 0.40895399
-0.72863197 1.0362 0.41467401
-0.72896099 1.0350699 0.44673201
-0.735551 1.03394 0.44689
-0.73031998 1.03107 0.32871801
-0.72808599 1.03641 0.373615
-0.72772002 1.03754 0.40317401
-0.72765398 1.03775 0.40893799
-0.72772998 1.03754 0.41469601
-0.72807801 1.03642 0.446713
-0.73032898 1.03108 0.49155599
-0.73115999 1.02979 0.49118301
-0.73065901 1.04687 0.44741601
-0.730196 1.04856 0.41468
-0.73012102 1.04889 0.40894499
-0.73019499 1.04857 0.40319401
-0.73065799 1.04686 0.372881
-0.73124403 1.04904 0.37272
-0.73072797 1.05077 0.40317199
-0.73064899 1.0511 0.40893701
-0.73073697 1.05077 0.41466999
-0.731251 1.04904 0.447557
-0.73365003 1.0431 0.492374
-0.733006 1.04092 0.49221301
-0.73724902 1.03502 0.53217298
-0.73654097 1.03318 0.53071499
-0.73301899 1.05082 0.40319699
-0.73291302 1.05112 0.408939
-0.73301601 1.05082 0.414709
-0.73353899 1.0491 0.44764099
-0.73591202 1.0431401 0.49234
-0.87982398 1.03054 0.539195
-0.74093401 1.03149 0.54071999
-0.881522 1.0343601 0.53061801
-0.73953599 1.0350699 0.53218102
-0.881028 1.04298 0.49090001
-0.87914401 1.0483201 0.450616
-0.87723202 1.05051 0.415144
-0.87694597 1.05088 0.40943801
-0.87723899 1.05051 0.40366599
-0.82520199 0.905168 0.62788302
-0.77328801 0.91954601 0.61945599
-0.82799703 0.91572201 0.62968397
-0.76886898 0.93238902 0.62042099
-0.83225501 0.92619801 0.62665498
-0.76498502 0.94396502 0.61603701
-0.84464997 0.95355302 0.60991597
-0.75894898 0.96621799 0.601098
-0.85640198 0.978585 0.59175998
-0.75305003 0.98705602 0.58563298
-0.74757701 1.00799 0.56790102
-0.86706299 1.003 0.57058197
-0.74260598 1.02633 0.54837197
-0.87713498 1.0252399 0.54683697
-0.82285303 0.88731903 0.620269
-0.81958097 0.86289102 0.60729003
-0.81720603 0.84552997 0.59618098
-0.81550902 0.83885199 0.59034598
-0.81406802 0.83568501 0.582412
-0.78008199 0.90025198 0.61360198
-0.78855097 0.87639397 0.60401702
-0.795349 0.85758603 0.59466302
-0.797001 0.849953 0.58888102
-0.79767299 0.84539503 0.581074
-0.81317198 0.83906299 0.49192199
-0.82048899 0.834638 0.499603
-0.79605103 0.84714299 0.58089203
-0.79520297 0.85183698 0.58870101
-0.79295701 0.859954 0.59441203
-0.786192 0.87802303 0.60357201
-0.77746201 0.90176702 0.613271
-0.770711 0.920295 0.61895102
-0.76627302 0.93317097 0.61994201
-0.76242501 0.94467801 0.61553699
-0.80459499 0.84497899 0.492621
-0.80272001 0.84632897 0.49281001
-0.79531997 0.84891403 0.579171
-0.79443997 0.85337502 0.58708
-0.79195201 0.861413 0.59278297
-0.78526998 0.87886101 0.60173702
-0.77638102 0.90252697 0.61140603
-0.76970398 0.92045099 0.61688298
-0.76511902 0.93333501 0.61769801
-0.78837597 0.86234701 0.57785898
-0.785151 0.86951202 0.58358502
-0.77912903 0.88358998 0.59123099
-0.769297 0.90691298 0.60085201
-0.76326603 0.92142302 0.60498601
-0.758708 0.93415803 0.60581201
-0.76114303 0.94482702 0.613056
-0.755265 0.94541299 0.60112602
-0.75534499 0.96601999 0.59859699
-0.75038803 0.96350598 0.58900702
-0.79052299 0.85896897 0.569525
-0.78891599 0.862562 0.57711601
-0.78989899 0.85860002 0.57000101
-0.78561503 0.86961699 0.58283502
-0.77995503 0.883479 0.59033102
-0.77056098 0.90696698 0.59997398
-0.76492 0.92128098 0.60399699
-0.760037 0.93390697 0.60479301
-0.75584 0.94507998 0.600187
-0.75102597 0.96318501 0.58783799
-0.75763702 0.961375 0.58813697
-0.76245302 0.94277298 0.60076398
-0.76665097 0.93202102 0.60502201
-0.77151603 0.91999602 0.60439098
-0.77717501 0.90543997 0.60024899
-0.78658003 0.882155 0.59083003
-0.79223502 0.86745 0.58282501
-0.79553998 0.86117101 0.57798803
-0.80463398 0.85674298 0.49534899
-0.79713601 0.85806102 0.57145
-0.75290698 0.97806901 0.575495
-0.74847198 0.995368 0.56140798
-0.743249 1.01411 0.53967297
-0.737764 1.0287 0.49089301
-0.73430097 1.02353 0.52321899
-0.74092799 1.0223401 0.523206
-0.73532599 1.02012 0.53186202
-0.74194801 1.01899 0.53184098
-0.73662001 1.01526 0.53976101
-0.74187499 0.996521 0.56165498
-0.74629903 0.979527 0.57549298
-0.74561697 0.98042399 0.57635403
-0.74113399 0.997881 0.562024
-0.73585302 1.01632 0.54047501
-0.73451 1.02121 0.53259099
-0.73345798 1.02463 0.52392298
-0.74967498 0.985964 0.58373499
-0.74444503 1.00616 0.56676698
-0.73949999 1.0246201 0.54700202
-0.73788297 1.0297101 0.53931397
-0.75650001 0.96657902 0.60073
-0.75064898 0.98722899 0.585374
-0.74524403 1.00806 0.56781501
-0.74030697 1.02632 0.54836798
-0.73863 1.0314699 0.54071498
-0.70032102 1.16603 -0.094972603
-0.67876601 1.2141401 -0.124141
-0.67523801 1.20093 -0.12815399
-0.67664802 1.1871901 -0.126618
-0.68187702 1.17589 -0.120062
-0.69101298 1.16873 -0.108283
-0.71040797 1.2347701 -0.079367198
-0.702555 1.23288 -0.092200398
-0.70750302 1.23033 -0.094275802
-0.69380599 1.22938 -0.104656
-0.69876701 1.2270499 -0.106588
-0.684919 1.2232 -0.116416
-0.68984997 1.2215199 -0.118226
-0.68384498 1.21261 -0.12562799
-0.68075901 1.20127 -0.129636
-0.68122 1.19019 -0.12873501
-0.68652397 1.17856 -0.122192
-0.69570398 1.17125 -0.11055
-0.71814197 1.23566 -0.065673903
-0.71546602 1.23225 -0.081402503
-0.72317702 1.2331899 -0.067796499
-0.69325101 1.21656 -0.119495
-0.70680302 1.22343 -0.101581
-0.72312999 1.22857 -0.075899497
-0.73351997 1.23366 -0.0478816
-0.72838902 1.23627 -0.045694198
-0.73789799 1.23667 -0.023487199
-0.74325401 1.2339 -0.0253319
-0.73738497 1.22925 -0.0493812
-0.747284 1.22925 -0.026738301
-0.74175698 1.20635 -0.0511995
-0.742378 1.18716 -0.051498398
-0.727961 1.20783 -0.078174703
-0.72782701 1.18946 -0.078396298
-0.72245198 1.16969 -0.076480404
-0.73705399 1.1683199 -0.0493901
-0.73293 1.16379 -0.048311599
-0.74290502 1.1641099 -0.025336299
-0.74698001 1.16882 -0.0267394
-0.75292403 1.1682301 -0.0027264401
-0.74902499 1.16372 -0.00103927
-0.75789899 1.16954 0.027694499
-0.75841999 1.18705 -0.0042643398
-0.75777501 1.20626 -0.00405611
-0.763313 1.18929 0.0259606
-0.75322199 1.22825 -0.0027341
-0.76329702 1.20762 0.025751
-0.76580101 1.1910599 0.058105901
-0.76072103 1.17408 0.060683399
-0.75555903 1.1659 0.037540399
-0.75298399 1.1645 0.0210764
-0.74760503 1.16241 0.022029599
-0.76559901 1.20889 0.057105102
-0.76368803 1.19541 0.081470102
-0.76349002 1.20617 0.080261901
-0.76045799 1.20059 0.091960303
-0.76036698 1.194 0.091806903
-0.76077801 1.18261 0.083828598
-0.74926198 1.2335401 -0.00150882
-0.75811899 1.22746 0.027012501
-0.76085502 1.22317 0.057333801
-0.76104999 1.21623 0.079818197
-0.76056099 1.20781 0.088627599
-0.75712597 1.1898 0.094441801
-0.757303 1.20085 0.095470302
-0.75732601 1.21225 0.090433598
-0.75758803 1.22119 0.080923602
-0.75753999 1.22672 0.066254303
-0.75695503 1.23006 0.051152501
-0.755431 1.23206 0.036099698
-0.75323099 1.2330199 0.0205968
-0.74387997 1.23615 -8.3759798e-05
-0.74796897 1.2355 0.022011099
-0.750175 1.23456 0.037609398
-0.75177097 1.23262 0.0525719
-0.75246203 1.2291 0.0677865
-0.75258797 1.22287 0.082543202
-0.75241798 1.21378 0.092397802
-0.75205398 1.2005301 0.097700499
-0.75220603 1.18679 0.095566697
-0.52590501 0.46085301 -0.77732301
-0.52586001 0.46309301 -0.788822
-0.527201 0.463067 -0.78879201
-0.52725703 0.46080601 -0.77733803
-0.81203401 0.50064403 -0.83767998
-0.90418899 0.49177799 -0.90521097
-0.90253299 0.50533998 -0.82851601
-0.96184599 0.51043898 -0.87560499
-0.95816803 0.52427101 -0.81514698
-0.99008298 0.543235 -0.87010002
-0.983657 0.56408697 -0.80514598
-0.86768401 0.89628297 0.953731
-0.68999702 0.88378298 0.26320499
-0.73050898 0.866548 0.28763601
-0.69065303 0.88344997 0.263859
-0.729307 0.86351103 0.28784499
-0.69088697 0.88416898 0.26381499
-0.69040602 0.88440698 0.263183
-0.68944502 0.88405699 0.262678
-0.68978101 0.88449699 0.262595
-0.67406398 0.77315599 -0.0216018
-1.42309 0.920883 -0.460484
-1.4190201 0.92133099 -0.51554102
-0.483688 0.699462 -0.0215986
-0.68998098 0.88377303 0.55441898
-0.69087201 0.88416499 0.553801
-0.69063801 0.88343501 0.55375803
-0.72928798 0.86351901 0.529755
-0.73050702 0.86654299 0.52996701
-0.69040102 0.88440901 0.55440497
-0.68942201 0.88405597 0.55493098
-0.68976402 0.88449597 0.55505699
-0.41962501 0.67796099 -0.047268301
-0.42809501 0.68200898 -0.048733398
-0.42783999 0.681458 -0.047627199
-0.43567601 0.68484402 -0.0441886
-0.43645999 0.68562502 -0.045166399
-0.420863 0.67800999 -0.053447701
-0.41819799 0.67672598 -0.054665301
-0.41896799 0.67812997 -0.048371602
-0.44274601 0.68829799 -0.039616201
-0.442047 0.68753898 -0.038494699
-0.44718599 0.69017798 -0.031413302
-0.446354 0.689345 -0.0307904
-0.44825801 0.690494 -0.027740199
-0.447034 0.68952501 -0.0277263
-0.40446699 0.67232198 -0.039337002
-0.40123701 0.67076403 -0.0303789
-0.40552601 0.67229098 -0.038274799
-0.41191301 0.67479098 -0.044091102
-0.41074201 0.67478299 -0.044999301
-0.68111598 0.78195602 0.254951
-0.67583799 0.78483099 0.26047301
-0.68275702 0.78284699 0.25785899
-0.66146201 0.78087699 0.217746
-0.668639 0.77740198 0.226826
-0.67416197 0.783966 0.257608
-0.67049199 0.79017299 0.26170799
-0.66874099 0.78935099 0.258845
-0.66818398 0.79744101 0.26125699
-0.66646999 0.79665899 0.25838599
-0.669469 0.80469501 0.259152
-0.66773099 0.80394697 0.25625601
-0.67403901 0.80997199 0.25602201
-0.67223901 0.80925697 0.25310901
-0.658566 0.78972298 0.22618
-0.660501 0.79811502 0.224133
-0.67876798 0.81116998 0.24977501
-0.68556601 0.80916399 0.24710301
-0.680695 0.81188399 0.25271401
-0.68760401 0.80989498 0.25008899
-0.69292498 0.80454999 0.248816
-0.691365 0.80377901 0.24583
-0.695274 0.797288 0.249322
-0.692339 0.80074501 0.24603499
-0.693973 0.79003799 0.25139701
-0.692406 0.78917402 0.248439
-0.68939 0.784751 0.25452301
-0.68779498 0.78386801 0.25158399
-0.74680102 0.82268798 0.29279399
-0.748052 0.81804901 0.29351601
-0.74662 0.81361502 0.294447
-0.74290502 0.81063598 0.29533201
-0.73791099 0.80991501 0.29592001
-0.73307103 0.81164402 0.296128
-0.72959602 0.81530899 0.29578799
-0.72842002 0.81990099 0.29508099
-0.74879903 0.82463801 0.303776
-0.75007302 0.82042903 0.304775
-0.74853897 0.81624198 0.305388
-0.74461699 0.81319499 0.30545199
-0.73932999 0.81208903 0.30491799
-0.734124 0.81324297 0.30396101
-0.73038697 0.81633902 0.30283901
-0.729114 0.82054597 0.301853
-0.72982103 0.82420897 0.29417199
-0.730654 0.82473803 0.30123699
-0.73342901 0.82713401 0.29328001
-0.73458499 0.82778198 0.30119601
-0.73831803 0.82789701 0.292638
-0.73987001 0.82888901 0.30171701
-0.74321902 0.82628399 0.29245999
-0.74508297 0.82773101 0.30267599
-0.52129 0.71986902 -0.033085901
-0.52018201 0.72002101 -0.034845699
-0.520895 0.71975201 -0.035092101
-0.52089697 0.71974498 -0.0081077302
-0.52129298 0.71986401 -0.0101125
-0.52137798 0.71990103 -0.021600001
-0.51990199 0.71940702 -0.036622599
-0.51700401 0.718431 -0.038909901
-0.51201499 0.71623099 -0.042598099
-0.52016199 0.720061 -0.00836227
-0.520567 0.72018301 -0.0104004
-0.52060199 0.72017699 -0.0216008
-0.520567 0.72018403 -0.032798398
-0.519216 0.71973598 -0.00692228
-0.516478 0.71879297 -0.0048073102
-0.51149601 0.71666098 -0.0011584
-0.50588101 0.71421099 0.0022913599
-0.50302303 0.71301699 0.00308778
-0.499762 0.71161002 0.00284576
-0.49060699 0.70776403 0.00078556099
-0.519903 0.71940899 -0.0065783202
-0.51700598 0.718427 -0.0042884699
-0.51201302 0.71623701 -0.00060255599
-0.50628197 0.71376097 0.0028973499
-0.50329202 0.71249002 0.0037350401
-0.49990901 0.71105403 0.0034853099
-0.49076799 0.70722902 0.0014183701
-0.48118901 0.70318198 -0.0010431299
-0.47257 0.69960201 -0.00381169
-0.46653399 0.69699001 -0.0060988902
-0.46421799 0.69612801 -0.0074213501
-0.46299401 0.69566 -0.0097215902
-0.46230999 0.69558698 -0.0135789
-0.461321 0.69546801 -0.021599101
-0.46169901 0.69622499 -0.0215989
-0.462688 0.696347 -0.0135795
-0.46326399 0.69637001 -0.0100415
-0.46444201 0.69683301 -0.0078166798
-0.46673301 0.69769502 -0.00652568
-0.47243699 0.70012099 -0.0044338098
-0.481217 0.70380199 -0.00162537
-0.462677 0.69632 -0.029623
-0.46327499 0.69640797 -0.033151601
-0.46443999 0.69682401 -0.035383999
-0.46673599 0.69771498 -0.036671299
-0.472442 0.70014799 -0.038760498
-0.481217 0.70381802 -0.041571099
-0.46229899 0.69555598 -0.0296237
-0.46299401 0.69565701 -0.033477802
-0.46421599 0.69612497 -0.035779301
-0.46654099 0.69701898 -0.037095599
-0.47256699 0.69959301 -0.039391201
-0.48118901 0.70320398 -0.042151
-0.490767 0.707232 -0.044617102
-0.49060801 0.70775902 -0.043985698
-0.50627899 0.71377897 -0.046092801
-0.50328499 0.71252197 -0.0469229
-0.499906 0.71107399 -0.0466788
-0.49975899 0.71162099 -0.046043601
-0.50302702 0.71299201 -0.046296
-0.50587797 0.71421999 -0.0454868
-0.5115 0.71664703 -0.042045999
-0.51646101 0.71883398 -0.038383398
-0.51921898 0.71972901 -0.036279202
-0.67606598 0.87840903 0.54080802
-0.68160999 0.89361 0.54773098
-0.72041899 0.87356198 0.528413
-0.717058 0.86432803 0.52844697
-0.70378703 1.16905 -0.0118682
-0.68728399 1.16598 -0.0532187
-0.68942797 1.16954 -0.053963602
-0.68420601 1.17072 -0.069289401
-0.68205899 1.16717 -0.068755597
