# .PCD v0.7 - Point Cloud Data file format
VERSION 0.7
FIELDS x y z
SIZE 4 4 4
TYPE F F F
COUNT 1 1 1
WIDTH 1507
HEIGHT 1
VIEWPOINT 0 0 0 1 0 0 0
POINTS 1507
DATA ascii
-0.122875 0.211689 -0.000436
-0.103099 0.150372 -0.063819997
-0.084011003 0.122397 -0.02688
-0.091752 0.058141001 0.018015999
-0.122997 0.056607001 0.020205
-0.14380699 0.05816 0.015152
-0.082975 0.149033 -0.025392
-0.100665 0.018615 0.058942001
-0.123089 0.016291 0.053555001
-0.14730901 0.018595999 0.056543998
-0.14748 0.012821 0.065522
-0.157149 0.016364999 0.070543997
-0.140894 0.0038709999 0.080112003
-0.15126701 0.067281 0.030444
-0.156339 0.024025001 0.062602997
-0.090966001 0.024148 0.065907001
-0.101416 0.012835 0.067892
-0.123561 0.009757 0.062693998
-0.124384 0.0036269999 0.078649998
-0.125129 0.001455 0.093079999
-0.145385 0.0010329999 0.086432002
-0.12526999 -0.0020679999 0.100828
-0.140503 -0.00011 0.095037997
-0.154386 0.001069 0.087047003
-0.14172401 0.0036549999 0.107508
-0.139544 0.002114 0.107208
-0.126445 0.00205 0.118569
-0.112246 0.002114 0.108617
-0.12662201 0.0065060002 0.12201
-0.110108 0.0036549999 0.109139
-0.145079 0.001707 0.117517
-0.126693 0.0035689999 0.123373
-0.13391601 0.00069000002 0.152218
-0.129567 0.004156 0.126653
-0.12827 0.0027139999 0.153926
-0.122164 0.00069100002 0.152825
-0.124172 0.004156 0.126931
-0.120748 -0.001556 0.145421
-0.120777 0.00102 0.130564
-0.107801 0.001707 0.119441
-0.109239 0.0033420001 0.121202
-0.111844 0.00088399998 0.12709101
-0.112444 -0.00092000002 0.14447799
-0.109436 0.0018119999 0.148302
-0.101467 0.00278 0.132422
-0.093837 0.0014299999 0.126526
-0.095430002 -0.00106 0.12558199
-0.096192002 -0.000459 0.116296
-0.094452001 0.001844 0.113039
-0.10213 -0.00047599999 0.120612
-0.099523 0.00016900001 0.128104
-0.104966 0.002533 0.120247
-0.108114 0.0038709999 0.081804
-0.104296 0.0010329999 0.088552997
-0.109522 -0.00011 0.096637003
-0.049003001 0.120142 0.62431598
-0.040523998 0.051821999 0.622585
-0.042176999 0.077234998 0.61136699
-0.044403002 0.100253 0.60956001
-0.037021 0.041602001 0.59495199
-0.039464999 0.04273 0.62829101
-0.039785001 0.071024999 0.59890199
-0.037431002 0.101624 0.59312999
-0.039549999 0.117444 0.59116697
-0.037053 0.14120699 0.59775299
-0.046695001 0.14427701 0.62998301
-0.036249999 0.20083299 0.61593598
-0.035094 0.072229996 0.58955002
-0.042807002 0.200773 0.57269299
-0.035089999 0.091936998 0.58969802
-0.044415999 0.070882998 0.58057898
-0.045051001 0.090645 0.57450497
-0.050051998 0.039258 0.58664501
-0.034823999 0.022946 0.59863299
-0.025333 0.018856 0.63055599
-0.023740999 0.015313 0.65380198
-0.028864 -0.00012500001 0.65021598
-0.028615 0.030963 0.64680099
-0.038178001 0.042874001 0.64708298
-0.065598004 0.052042998 0.64207399
-0.065580003 0.059149999 0.63763303
-0.070822001 0.120951 0.637097
-0.071390003 0.145822 0.64366198
-0.104295 0.145236 0.622379
-0.093510002 0.119876 0.61884803
-0.090245001 0.051360998 0.62275702
-0.091205001 0.042311002 0.62820601
-0.095202997 0.043958001 0.64617503
-0.10704 0.019006999 0.63044399
-0.103896 0.031530999 0.64589101
-0.106929 0.016155999 0.65395701
-0.101599 0.000122 0.63080102
-0.097061001 0.041467 0.59486198
-0.099350996 0.022700001 0.59861898
-0.095720999 0.00135 0.61844099
-0.084541 0.0024979999 0.64429802
-0.087497003 0.003367 0.64495099
-0.091738001 0.004001 0.65726101
-0.093506999 0.001164 0.652803
-0.097580001 -0.000184 0.65003097
-0.099266998 0.0024009999 0.65084302
-0.096303999 0.000162 0.64051503
-0.090430997 0.00028099999 0.64526403
-0.097920001 0.0024300001 0.63700902
-0.101806 0.00062100001 0.65081602
-0.096120998 0.027665 0.67561501
-0.092560999 0.027229 0.66967797
-0.091301002 0.028563 0.67849302
-0.068360999 0.026350001 0.69083297
-0.069325 0.033082999 0.68594998
-0.065334998 0.023832999 0.68595701
-0.065334998 0.052816 0.66891903
-0.10376 0.025363 0.65915602
-0.095726997 0.030127 0.67131501
-0.095457003 0.042330001 0.65197998
-0.088996001 0.033064 0.67664498
-0.042157002 0.032400001 0.67581803
-0.037787002 0.041717999 0.65461397
-0.065334998 0.053056002 0.66065401
-0.026906 0.024298999 0.65944302
-0.034915999 0.028599 0.671942
-0.060766999 0.031704001 0.68572199
-0.039368998 0.02698 0.67879999
-0.038109001 0.025905 0.66994703
-0.034549002 0.026175 0.67587501
-0.041790001 0.0056030001 0.66544402
-0.046452999 0.00027300001 0.67532301
-0.062771 0.024621001 0.690947
-0.065334998 0.003786 0.67842299
-0.028480999 0.31167701 0.684214
-0.0064630001 0.28172401 0.652156
0.0081240004 0.279935 0.58445501
0.020477001 0.28155601 0.65044898
0.0064630001 0.28172401 0.652156
0 0.28316799 0.65343702
-0.15420499 0.00017299999 0.125282
-0.15801699 -0.00106 0.122351
-0.156303 -0.000459 0.113193
-0.150841 -0.00047599999 0.118098
-0.147983 0.002533 0.118027
-0.15769801 0.001844 0.109775
-0.15969899 0.0014299999 0.123126
-0.152716 0.0028049999 0.129774
-0.160955 -0.000227 0.103503
-0.162159 -0.00030000001 0.122924
-0.155423 0.001588 0.14096799
-0.15416899 0.025034999 0.142425
-0.157922 0.025294 0.148018
-0.16731 0.014712 0.126146
-0.166245 0.018138999 0.10341
-0.130484 0.023678999 0.164197
-0.131868 -0.00034 0.15706301
-0.15338901 0.026086999 0.151077
-0.156115 0.040208001 0.125532
-0.15732899 0.027806999 0.14393499
-0.164509 0.023515999 0.131605
-0.163985 0.029882001 0.118901
-0.155581 0.041951999 0.119958
-0.127308 0.050946999 0.135289
-0.125994 0.049989998 0.104873
-0.10025 0.041510999 0.123066
-0.150344 0.038656998 0.092152998
-0.150243 0.042773001 0.080293
-0.12524 0.056000002 0.091337003
-0.097589999 0.085739002 0.058757
-0.12532499 0.093362004 0.067083001
-0.098802999 0.043065999 0.082483001
-0.099932 0.039062999 0.094403997
-0.086957 0.018154999 0.107672
-0.15188099 0.082778998 0.051213998
-0.14128201 0.120477 0.031399
-0.130345 0.124267 0.044140998
-0.103261 0.121807 0.039354999
-0.144639 0.143898 0.036906999
-0.13204101 0.14432 0.055768002
-0.10195 0.142271 0.049954999
-0.084821999 0.115335 0.003735
-0.087491997 0.188242 0.095372997
-0.120255 0.18521599 0.106408
-0.1179 0.232998 0.155514
-0.116259 0.28650299 0.196263
-0.075579002 0.232014 0.142544
-0.065531 0.277482 0.172864
-0.054669999 0.296857 0.188582
-0.105288 0.43062299 0.45509699
-0.101094 0.38057199 0.47302699
-0.101722 0.38817599 0.53234798
-0.103053 0.42807701 0.393655
-0.097629003 0.36855501 0.412085
-0.098113 0.430958 0.32635999
-0.091215998 0.35739201 0.33563799
-0.095482998 0.42838699 0.25446799
-0.085692003 0.35350901 0.26488301
-0.063196003 0.295921 0.27030501
0 0.28621 0.182439
-0.066087 0.31069899 0.42254001
-0.05559 0.31320801 0.49165699
-0.064502001 0.30201101 0.34415099
-0.075897001 0.33526501 0.53398299
-0.067092001 0.211897 0.55276501
-0.069886997 0.280166 0.533189
-0.070923999 0.29293799 0.53495598
-0.097138003 0.29886699 0.555601
-0.107859 0.34322599 0.56179398
-0.127496 0.345034 0.59474802
-0.126305 0.302641 0.59589303
-0.084030002 0.039218999 0.58662701
-0.093226999 0.117294 0.56787097
-0.071978003 0.116792 0.56377
-0.090829 0.14347599 0.56472898
-0.068489999 0.142472 0.56031799
-0.089647003 0.214743 0.55745101
-0.093552999 0.274203 0.55539
-0.122084 0.26545101 0.59335703
-0.054618001 0.063542001 0.58208603
-0.061464 0.072238997 0.57656097
-0.065384001 0.038910002 0.58185101
-0.063091002 0.100656 0.571531
-0.048018001 0.140872 0.56785202
-0.052101001 0.117314 0.56787097
-0.053690001 0.10002 0.56955898
-0.065334998 0.017488001 0.587668
-0.049355999 0.020125 0.59237701
-0.065334998 0.003974 0.60789597
-0.084818996 0.019812999 0.59239101
-0.082222998 0.0041499999 0.61038899
-0.065334998 0.001892 0.62277198
-0.044165999 0.0014750001 0.61683202
-0.048447002 0.0043950002 0.61009902
-0.034949001 0.0038729999 0.61608398
-0.049047001 0.0039440002 0.63328999
-0.046128999 0.001939 0.64375401
-0.065334998 0.0042090002 0.64904201
-0.062555999 0.0047570001 0.65249401
-0.086503997 0.001297 0.61729997
-0.065334998 -0.001601 0.63090301
-0.049879 0.000267 0.62562901
-0.051270999 0.0023630001 0.63287503
-0.065334998 0.007222 0.64760298
-0.065334998 0.0025879999 0.64412701
-0.079398997 0.0026 0.63339198
-0.080790997 0.000302 0.62617201
-0.081623003 0.0041970001 0.63377202
-0.068113998 0.004956 0.65261
-0.071227998 0.002386 0.67935598
-0.084392004 0.0035240001 0.673962
-0.081097998 0.00059200003 0.67028701
-0.072291002 -0.00027300001 0.67169702
-0.080792002 0.001885 0.65239501
-0.083155997 0.0042340001 0.64613497
-0.086754002 0.00238 0.67627102
-0.071796 0.001794 0.65621901
-0.070161 0.00144 0.684246
-0.059119001 0.00096400001 0.67884898
-0.060648002 0.000314 0.68385899
-0.046278 0.002045 0.6735
-0.049571998 -0.000765 0.66972899
-0.047513999 0.0036210001 0.64564002
-0.058056001 -0.001255 0.671215
-0.058874 0.00157 0.65608001
-0.038931999 0.0030420001 0.65675801
-0.037163001 0.00035700001 0.65221798
-0.033089999 -0.00090699998 0.64940798
-0.043173 0.002789 0.64443201
-0.029070999 0.0023080001 0.63006097
-0.036743 0.001761 0.66847003
-0.031403001 0.001653 0.65029401
-0.034366 -0.00028800001 0.63990498
-0.040238999 -0.000306 0.644656
-0.032749999 0.002081 0.63646698
-0.029568 0.62535602 -0.097193003
0 0.63737202 -0.094649002
0 0.70818198 -0.164901
0 0.59202701 -0.020293999
-0.032754999 0.576729 -0.024852
-0.039399002 0.60278302 -0.110492
-0.029259 0.699 -0.170987
-0.038201001 0.68418401 -0.189766
-0.024146 0.77960098 -0.23700599
-0.031810001 0.76690203 -0.25310099
-0.019517001 0.8567 -0.29460001
0 0.86285299 -0.29052201
0 0.91699702 -0.336833
0 0.787471 -0.23179001
-0.01271 0.91281301 -0.33960599
-0.025508 0.84677303 -0.307183
-0.020896001 0.758717 -0.26814699
-0.025469 0.67463398 -0.20731799
-0.025386 0.586227 -0.124658
-0.044284001 0.543957 -0.036584999
-0.028333999 0.51563197 -0.046271
-0.016785 0.90606099 -0.34816301
-0.016976999 0.84037399 -0.31894499
-0.010983 0.90170997 -0.35616201
0 0.67217302 -0.21280301
0 0.919792 -0.35386401
0 0.58309102 0.014142
-0.039067 0.56688398 0.0090629999
0.045288 0.57514 0.053769
0.039067 0.56688398 0.0090629999
0 0.58814698 0.055826999
0 0.592776 0.092798002
0 0.59537703 0.147223
-0.036208 0.58479601 0.22922701
0 0.59365398 0.222983
-0.035806 0.577757 0.29541701
-0.078690998 0.52548099 0.483877
-0.041242 0.55320501 0.46511599
-0.040766999 0.55925101 0.413333
-0.080297001 0.52425301 0.42392799
-0.038318999 0.568389 0.35504699
-0.077816002 0.53227198 0.36349499
-0.072191998 0.53503197 0.30228201
-0.070762001 0.536933 0.23182
-0.102154 0.47602999 0.438384
-0.100853 0.48390099 0.37959501
-0.097258002 0.482537 0.31464601
-0.092463002 0.48211601 0.240098
-0.095926002 0.49176899 0.193758
-0.106594 0.43554699 0.51501602
-0.075672999 0.39263701 0.74866498
-0.103608 0.42933601 0.73340499
-0.107776 0.36488599 0.71097702
-0.123156 0.40579799 0.66953701
-0.11124 0.46799499 0.70169997
-0.126509 0.40885699 0.60903102
-0.118315 0.46656799 0.61590999
-0.112073 0.44622701 0.56003499
-0.115555 0.39484701 0.56000102
-0.124642 0.34183499 0.64537501
-0.119494 0.30128899 0.63725799
-0.105459 0.32519701 0.68872797
-0.092205003 0.290555 0.66731697
-0.115974 0.26510799 0.63213199
-0.085441999 0.256632 0.65894699
-0.11233 0.213952 0.627258
-0.076424003 0.21089301 0.65218699
-0.051899999 0.204666 0.64051503
-0.056359999 0.244876 0.65254498
-0.057500999 0.273094 0.66506499
-0.056396 0.30412701 0.69194198
-0.070605002 0.33677199 0.71751797
-0.034033 0.23761301 0.63150197
-0.029580999 0.26089099 0.64228499
-0.020477001 0.28155601 0.65044898
-0.03393 0.263491 0.57558602
-0.039531 0.23932 0.57286698
-0.034455001 0.421424 0.78380603
-0.037002999 0.37835899 0.75627297
-0.031351 0.325418 0.707973
0 0.303193 0.69082201
-0.063018002 0.44325 0.77088302
-0.033918001 0.451159 0.81471097
-0.061186001 0.46879399 0.80259597
-0.035762001 0.463034 0.83990997
-0.066290997 0.47440499 0.83675301
-0.087448999 0.49615499 0.79546398
-0.095964 0.49912199 0.83265799
-0.10673 0.52747297 0.82416701
-0.098089002 0.52262801 0.7888
-0.103644 0.56300801 0.82232898
-0.08563 0.470357 0.75806499
-0.095091999 0.495184 0.73908103
-0.080986001 0.52134597 0.72365201
-0.082197003 0.52100098 0.67045999
-0.101259 0.51570499 0.60164499
-0.101657 0.497942 0.545735
-0.103076 0.48247999 0.498283
-0.055605002 0.55356199 0.68804401
-0.049467001 0.57556701 0.64071298
-0.064627998 0.56528801 0.59262198
-0.073789999 0.54152 0.53977001
-0.026794 0.57075298 0.68612999
-0.032274 0.59288102 0.73997301
0 0.59698999 0.73116398
-0.023791 0.56511801 0.63740897
-0.033752002 0.57290697 0.578385
-0.038449999 0.55626398 0.51783597
0 0.56457001 0.57457501
0 0.55979198 0.51163697
0 0.56347901 0.62942302
0 0.57585502 0.68228298
0.026794 0.57075298 0.68612999
0.032274 0.59288102 0.73997301
0.055605002 0.55356199 0.68804502
0.063415997 0.57195801 0.75781202
0.049467001 0.57556701 0.64071298
0.080986999 0.52134597 0.72365201
0.023791 0.56511801 0.63740897
0.033752002 0.57290697 0.578385
0.082197003 0.52100098 0.67045999
0.095091999 0.495184 0.73908103
0.064627998 0.56528801 0.59262198
0.038449999 0.55626398 0.51783597
0 0.56445998 0.46009299
0.041242 0.55320501 0.46511599
0 0.571832 0.40695101
0.040789001 0.55925101 0.413333
0.087448999 0.49615499 0.79546398
0.08563 0.470357 0.75806499
0.11124 0.46799499 0.70169997
0.101259 0.51570499 0.60164499
0.073790997 0.54152 0.53977001
0.078690998 0.52548099 0.483877
0.106594 0.43554699 0.51501602
0.112073 0.44622701 0.56003499
0.115555 0.39484701 0.56000102
0.126509 0.40885699 0.60903102
0.118316 0.46656799 0.61590999
0.101657 0.497942 0.545735
0.103077 0.48247999 0.498283
0.080343999 0.52425301 0.42392799
0.102208 0.47602999 0.438384
0.078359999 0.53227198 0.36349499
0.038488001 0.568389 0.35504699
0.036245 0.577757 0.29541701
0.074141003 0.53503197 0.30228201
0.10133 0.48390099 0.37959501
0.036568001 0.58479601 0.22922701
0.072710998 0.536933 0.23182
0.039228 0.58582097 0.152889
0 0.57821202 0.35317901
0 0.58710098 0.291473
0.039228 0.581339 0.094585001
0.090336002 0.54853499 0.103149
0.083476998 0.53778303 0.046698999
0.112319 0.48151499 0.04462
0.092578001 0.478264 -0.021431999
0.129416 0.41683599 0.05443
0.106921 0.41053301 -0.010444
0.13654201 0.36380199 0.063123003
0.112587 0.360073 0.00026999999
0.058393002 0.52395803 -0.0089189997
0.052404001 0.476652 -0.055548999
0.068324 0.41055 -0.054990001
0.071765997 0.350611 -0.044041999
0.117772 0.305628 0.012279
0.036102001 0.43981099 -0.049881
0.021785 0.42140099 -0.037122998
0.025472 0.44183999 -0.040224999
0.017461 0.447308 -0.050457999
0 0.42243701 -0.038038
0 0.34100899 -0.0060620001
0.080371998 0.302627 -0.02847
0.119963 0.26591 0.0085690003
0.095583998 0.26133299 -0.027662
0.033753 0.466584 -0.047169998
0.025961 0.47324201 -0.042256001
0.017905001 0.46399799 -0.053654999
0 0.50799102 -0.042652
0.0087320004 0.49849299 -0.043834999
0 0.50326401 -0.044613
0.0018570001 0.498723 -0.041769002
0 0.499244 -0.041916002
0 0.48546401 -0.040876999
0 0.46821201 -0.054138001
0 0.47974101 -0.043223999
-0.077014998 0.253436 0.020992
-0.081147999 0.20900799 0.012151
-0.097851001 0.218648 -0.032752
-0.082032003 0.145206 0.013397
-0.055034999 0.294296 0.0079060001
-0.039133001 0.27948099 0.091923997
-0.05872 0.231415 0.075893
-0.071298003 0.195962 0.053128999
-0.025472 0.44183999 -0.040224999
-0.021785 0.42140099 -0.037122998
-0.071765997 0.350611 -0.044041999
-0.080371998 0.302627 -0.02847
-0.095583998 0.26133299 -0.027662
0 0.441506 -0.042893
-0.017461 0.447308 -0.050457999
0 0.444325 -0.052871
-0.017905001 0.46399799 -0.053654999
-0.115478 0.21405201 0.58947498
-0.109719 0.143185 0.58849901
-0.101328 0.117231 0.58644199
-0.100856 0.62825501 0.84773898
-0.099515997 0.62874299 0.83073997
-0.094604 0.59500003 0.825854
-0.086773999 0.656515 0.84147698
-0.095885001 0.656138 0.85299402
-0.083043002 0.674227 0.85835099
-0.095155001 0.67498398 0.86598998
-0.091697998 0.69801199 0.88459301
-0.074325003 0.675291 0.85678399
-0.073062003 0.65689301 0.83348
-0.084229998 0.63527203 0.80739802
-0.093626 0.595734 0.79196799
-0.089342996 0.54998201 0.78260398
-0.063507996 0.677091 0.86144
-0.078372002 0.683312 0.86692399
-0.050797999 0.65873802 0.83353603
-0.039710999 0.65872997 0.85248202
-0.05037 0.65872198 0.87695599
-0.058729999 0.67687601 0.87272698
-0.070643 0.68434399 0.86962199
-0.074410997 0.69241399 0.87913603
-0.061471 0.678204 0.882604
-0.079852 0.70057702 0.88914102
-0.086631998 0.69109702 0.87573302
-0.058630999 0.65793997 0.87592697
-0.068650998 0.677549 0.88164598
-0.092938997 0.67507201 0.86665899
-0.087364003 0.60553497 0.84827799
-0.093144 0.628254 0.84840798
-0.103378 0.58621103 0.85682201
-0.10781 0.56425899 0.85445201
-0.107993 0.53662002 0.85625499
-0.015737001 0.51138002 0.91943198
0.027584 0.48074999 0.90892798
0.029932 0.48173001 0.90679401
0.027612999 0.48914301 0.90734702
0.023561001 0.488345 0.91460103
0.024556 0.49011001 0.91554397
0.023771999 0.480032 0.91252398
0.020865001 0.477566 0.919577
0.021095 0.48537999 0.92361403
0.020161999 0.49039999 0.92364001
0.00045200001 0.48704201 0.93187398
0.0093350001 0.486936 0.93075502
0.005014 0.48708299 0.93158299
0.0088820001 0.486855 0.93169701
0.00074300001 0.48234299 0.92816901
0.0035900001 0.48231801 0.92793399
0.0083229998 0.476376 0.92644
0.0083499998 0.4824 0.92756402
0.014211 0.47637701 0.92447299
0.013316 0.48280299 0.92492002
0.100183 0.018596999 0.14827999
0.10193 0.019298 0.148725
0.099744998 0.026143 0.13450301
0.098700002 0.031151 0.13754401
0.099630997 0.021247 0.14988901
0.101378 0.021947 0.150333
0.103047 0.027468 0.135343
0.102001 0.032476 0.138383
0.125884 0.020507 0.162582
0.12583099 0.023228001 0.164278
0.12771501 0.020462999 0.16255701
0.12852 0.028702 0.149193
0.12842201 0.033844002 0.152399
0.127663 0.023182999 0.164253
0.12496 0.033929002 0.152447
0.12505899 0.028788 0.149242
0.130014 0.020507 0.164152
0.129961 0.023228001 0.165848
0.131845 0.020462999 0.16412701
0.13265 0.028702 0.15076301
0.132552 0.033844002 0.153969
0.13179301 0.023182999 0.165823
0.12909 0.03393 0.154017
0.129188 0.028788 0.150812
0.157584 0.019685 0.148072
0.154222 0.026075 0.13362201
0.15757801 0.024584001 0.132689
0.157132 0.01706 0.146478
0.155356 0.017848 0.146972
0.15843301 0.029545 0.135702
0.15507799 0.031035 0.13663501
0.155808 0.020473 0.14856599
0.036095999 0.025242001 0.65951997
0.039512001 0.026709 0.660366
0.038387001 0.019386999 0.67422402
0.035362002 0.029682999 0.66200203
0.036579002 0.018611001 0.67377597
0.036191002 0.020961 0.67509001
0.037999 0.021737 0.67553699
0.038778 0.031151 0.662848
0.064386003 0.025490999 0.68957698
0.062541001 0.025381001 0.68951899
0.065079004 0.030393999 0.674303
0.065311 0.035034001 0.67697603
0.064263999 0.023034999 0.68816298
0.061825 0.034828998 0.67686599
0.061593 0.030189 0.67419302
0.062419001 0.022926001 0.68810499
0.068516001 0.023569001 0.69130701
0.065722004 0.028267 0.67592299
0.069209002 0.028472001 0.67603302
0.069440998 0.033112001 0.67870599
0.068392999 0.021113999 0.68989301
0.066670999 0.023459001 0.69124901
0.065954 0.032908 0.67859602
0.066549003 0.021004001 0.689834
0.094102003 0.018691 0.67381901
0.094726004 0.021101 0.675165
0.094509996 0.025374001 0.65959102
0.095691003 0.029928001 0.66213399
0.092986003 0.021668 0.67549998
0.092402004 0.031002 0.66276902
0.091220997 0.026448 0.66022599
0.092362002 0.019259 0.674155
0.049003001 0.120142 0.62431598
0.044403002 0.100253 0.60956001
0.042176999 0.077234998 0.61136699
0.040523998 0.051823001 0.62258399
0.039464999 0.042730998 0.62829101
0.037021 0.041602001 0.59495199
0.039785001 0.071024999 0.59890199
0.037431002 0.101625 0.59312999
0.039549999 0.117445 0.59116697
0.037053 0.14120699 0.59775299
0.046695001 0.14427701 0.62998301
0.036249999 0.20083299 0.61593598
0.035094 0.072229996 0.58955002
0.048018001 0.140872 0.56785202
0.035089999 0.091936998 0.58969802
0.044415999 0.070882998 0.58057898
0.054618001 0.063542001 0.58208603
0.045051001 0.090645 0.57450497
0.034823999 0.022946 0.59863299
0.025333 0.018856 0.63055599
0.038178001 0.042874001 0.64708298
0.028615 0.030963 0.64680099
0.037788 0.041717999 0.65461397
0.026906 0.024298999 0.65944302
0.034915999 0.028599 0.671942
0.034549002 0.026175 0.67587501
0.023740999 0.015313 0.65380198
0.049355999 0.020125 0.59237701
0.036743999 0.001761 0.66847003
0.041790999 0.0056030001 0.66544402
0.038109001 0.025905 0.66994703
0.039368998 0.02698 0.67879999
0.062771 0.024530999 0.69095302
0.065334998 0.022905 0.68599802
0.068360999 0.024530999 0.69095302
0.069325 0.031396002 0.68625599
0.065334998 0.052145001 0.66939801
0.088996001 0.03156 0.67696798
0.042157002 0.032400001 0.67581803
0.060766999 0.031621002 0.68573701
0.091301002 0.027008999 0.67868602
0.095457003 0.041533001 0.65258002
0.065334998 0.052577 0.66108
0.065598004 0.051846001 0.64242399
0.095202997 0.043327998 0.646824
0.103896 0.030913999 0.64618301
0.10376 0.024367001 0.65926403
0.095728002 0.028779 0.671556
0.090245001 0.051367 0.62284201
0.065580003 0.059131999 0.63768899
0.091205001 0.042249002 0.62856698
0.10704 0.018839 0.63038099
0.106929 0.015313 0.65380198
0.096120998 0.026193 0.67578202
0.092560999 0.025928 0.66983497
0.093925998 0.001815 0.66840202
0.088880002 0.0068939999 0.66511899
0.091738001 0.0030680001 0.65675497
0.099266998 0.001654 0.65029401
0.101806 -0.00012500001 0.65021598
0.101599 -4.8000002e-05 0.63019502
0.095720999 0.001512 0.61794102
0.099350996 0.022946 0.59863299
0.097061001 0.041602001 0.59495199
0.097580001 -0.00090699998 0.64940798
0.096303999 -0.00028800001 0.63990498
0.097920001 0.002081 0.63646698
0.084541 0.001939 0.64375401
0.081623003 0.0039440002 0.63328999
0.087497003 0.002789 0.64443201
0.090430997 -0.000306 0.644656
0.093506999 0.00036100001 0.65221697
0.065334998 0.0068740002 0.64739299
0.065334998 0.002292 0.64384699
0.079398997 0.002359 0.63286602
0.065334998 0.003853 0.64879602
0.068113998 0.0044570002 0.65232003
0.047513999 0.0036210001 0.64564002
0.062555999 0.0044570002 0.65232003
0.058874 0.001232 0.65587199
0.046128999 0.001939 0.64375401
0.049047001 0.0039440002 0.63328999
0.051270999 0.002359 0.63286602
0.065334998 -0.001683 0.63060802
0.080790997 0.000267 0.62562901
0.058056001 -0.001419 0.671139
0.059119001 0.00089099997 0.67882299
0.071227998 0.00089099997 0.67882299
0.065334998 0.002971 0.67816001
0.060648002 -0.00016900001 0.68369299
0.049571998 -0.000765 0.66972899
0.038931999 0.0030420001 0.65675801
0.043173 0.002789 0.64443201
0.046452999 0.00027300001 0.67532301
0.034949001 0.0038729999 0.61608398
0.034366 -0.00028800001 0.63990498
0.040238999 -0.000306 0.644656
0.037163001 0.00035700001 0.65221798
0.033089999 -0.00090699998 0.64940798
0.031403001 0.001654 0.65029401
0.032749999 0.002081 0.63646698
0.028864 -0.00012500001 0.65021598
0.029070999 0.0023080001 0.63006097
0.03246 0.49063 0.91114801
0.032758001 0.481841 0.91109502
0.02135 0.47434399 0.91933298
0.035751998 0.49104699 0.90642798
0.036515001 0.48536301 0.90890098
0.039894 0.49075001 0.90312999
0.041200999 0.487288 0.904324
0.042479999 0.48490101 0.90185797
0.050248001 0.480041 0.89286298
0.029836001 0.467053 0.877065
0.044525001 0.48861599 0.90350199
0.060531002 0.489768 0.89661902
0.058437001 0.47644201 0.879673
0 0.463099 0.857611
0.079205997 0.49369699 0.885346
-0.079205997 0.49369699 0.885346
-0.095417999 0.49918699 0.86284798
-0.063065998 0.47302699 0.85958099
-0.093681 0.53908902 0.884004
-0.083632998 0.517295 0.89598799
-0.068832003 0.50612801 0.90417099
-0.062542997 0.52395499 0.917943
-0.051739 0.51212102 0.92136103
-0.049555 0.50194597 0.921942
-0.039565999 0.52385199 0.93070298
-0.044516999 0.53122699 0.92636102
-0.024734 0.54456401 0.91644102
-0.026477 0.54301101 0.91604102
-0.023344999 0.53954202 0.922526
-0.020184999 0.54286999 0.92401499
-0.023817999 0.53550601 0.92422903
-0.026834 0.55142897 0.91642499
-0.025774 0.54671502 0.91395402
-0.02757 0.54473901 0.91351902
-0.032224 0.54548001 0.91486001
-0.030407 0.541228 0.91716301
-0.045878999 0.53862798 0.92054802
-0.045254 0.543051 0.91325003
-0.056954999 0.54868001 0.90828598
-0.045936 0.54074502 0.90844202
-0.031652 0.54389602 0.90851599
-0.026138 0.54394799 0.90772498
-0.024335001 0.54627502 0.907951
-0.023132 0.55089903 0.90922499
-0.023290999 0.56201398 0.910263
-0.028212 0.55980003 0.91768098
-0.038399 0.57487702 0.90986401
-0.041917998 0.57056099 0.91557902
-0.057183001 0.57621402 0.89904201
-0.055610999 0.57146603 0.90631098
-0.063871004 0.56155002 0.89885998
-0.061074998 0.56113398 0.90645403
-0.059377 0.54697597 0.90361202
0.120748 -0.001556 0.145421
0.120777 0.00102 0.130564
0.124172 0.004156 0.126931
0.122164 0.00069100002 0.152825
0.126693 0.0035689999 0.123373
0.14303701 -0.000871 0.142849
0.146422 0.001876 0.146331
0.13391601 0.00069000002 0.152218
0.124701 -0.00034 0.157433
0.112444 -0.00092000002 0.14447799
0.109239 0.0033420001 0.121202
0.107801 0.001707 0.119441
0.104677 0.0052720001 0.140709
0.099930003 0.0015360001 0.14389899
0.101467 0.00278 0.132422
0.093837 0.0014299999 0.126526
0.095430002 -0.00106 0.12558199
0.094452001 0.001844 0.113039
0.096192002 -0.000459 0.116296
0.099523 0.00016900001 0.128104
0.104966 0.002533 0.120247
0.110108 0.0036549999 0.109139
0.10213 -0.00047599999 0.120612
0.104297 0.0010329999 0.088552997
0.109522 -0.00011 0.096637003
0.12526999 -0.0020679999 0.100828
0.112246 0.002114 0.108617
0.12662201 0.0065060002 0.12201
0.126445 0.00205 0.118569
0.14172401 0.0036549999 0.107507
0.139544 0.002114 0.107208
0.140503 -0.00011 0.095037997
0.145385 0.0010329999 0.086432002
0.125129 0.001455 0.093079999
0.108114 0.0038709999 0.081804
0.091752 0.058141001 0.018015999
0.084011003 0.122397 -0.02688
0.103778 0.135342 -0.064654998
0.100665 0.018615 0.058942001
0.101416 0.012835 0.067892
0.124385 0.0036269999 0.078649998
0.140894 0.0038709999 0.080112003
0.123089 0.016291 0.053555001
0.122997 0.056607001 0.020204
0.125333 0.15063301 -0.037315
0.124163 0.121612 -0.035016
0.14380699 0.058161002 0.015152
0.14730901 0.018595999 0.056543998
0.14748 0.012821 0.065521002
0.123561 0.009757 0.062693998
0.157149 0.016364999 0.070543997
0.154386 0.001069 0.087047003
0.166245 0.018138999 0.10341
0.155581 0.041951999 0.119958
0.156115 0.040208001 0.125532
0.163985 0.029882001 0.118901
0.150344 0.038656998 0.092152998
0.15634 0.024025001 0.062602997
0.15126801 0.067281 0.030444
0.142148 0.119618 -0.0079340003
0.14523099 0.14757501 -0.004373
0.14082301 0.20262501 0.043883
0.141551 0.25937301 0.065677002
0.139715 0.244884 0.125962
0.13671499 0.192736 0.076757997
0.144639 0.143898 0.036906999
0.14128201 0.120477 0.031399
0.15188099 0.082778998 0.051213998
0.150243 0.042773001 0.080293
0.12524 0.056000002 0.091337003
0.065531999 0.277482 0.172864
0.116259 0.28650299 0.196263
0.098341003 0.347819 0.21291199
0.144363 0.304571 0.15773299
0.1179 0.232998 0.155514
0.120255 0.18521599 0.106408
0.13204101 0.14432 0.055768002
0.075579002 0.232014 0.142544
0.087491997 0.188242 0.095372997
0.10195 0.142271 0.049954999
0.071298003 0.195962 0.053128999
0.054669999 0.296857 0.188582
0.063196003 0.295921 0.27030501
0.085692003 0.35350901 0.26488301
0.064502001 0.30201101 0.34415099
0.095950998 0.42777199 0.21479601
0.02224 0.29641899 0.090672001
0.091215998 0.35739201 0.33563799
0.095895998 0.42838699 0.25446799
0.096612997 0.49176899 0.193758
0.066087 0.31069899 0.42254001
0.097629003 0.36855501 0.412085
0.05559 0.31320801 0.49165699
0.098618001 0.430958 0.32635999
0.094411001 0.48211601 0.240098
0.081403002 0.54686898 0.15753201
0.101094 0.38057199 0.47302699
0.103116 0.42807701 0.393655
0.099206999 0.482537 0.31464601
0.105288 0.43062299 0.45509699
0.101722 0.38817599 0.53234798
0.075897001 0.33526501 0.53398299
0.107859 0.34322599 0.56179398
0.097138003 0.29886699 0.555601
0.070923999 0.29293799 0.53495598
0.126305 0.302641 0.59589303
0.122084 0.26545101 0.59335703
0.127496 0.345034 0.59474802
0.103608 0.42933601 0.73340499
0.123156 0.40579799 0.66953701
0.124642 0.34183499 0.64537501
0.119494 0.30128899 0.63725799
0.10546 0.32519701 0.68872797
0.092205003 0.290555 0.66731799
0.056396 0.30412701 0.69194198
0.107776 0.36488599 0.71097702
0.057500999 0.273094 0.66506499
0.029580999 0.26089099 0.64228499
0.022371 0.283187 0.58134598
0.03393 0.263491 0.57558602
0.039531 0.23932 0.57286698
0.034033 0.23761301 0.63150197
0.056359999 0.244876 0.65254498
0.085441999 0.256632 0.65894699
0.115974 0.26510799 0.63213199
0.11233 0.213952 0.627258
0.076424003 0.21089301 0.65218699
0.051899999 0.204666 0.64051503
0.071390003 0.145822 0.64366198
0.104295 0.145236 0.622379
0.109719 0.143185 0.58849901
0.115478 0.214053 0.58947498
0.090829 0.14347599 0.56472898
0.089647003 0.214743 0.55745101
0.068489999 0.142472 0.56031799
0.101328 0.117231 0.58644199
0.093226999 0.117294 0.56787097
0.071978003 0.116792 0.56377
0.084030002 0.039258 0.58664501
0.086503997 0.0014750001 0.61683202
0.082222998 0.0043950002 0.61009902
0.084818996 0.020125 0.59237701
0.065384001 0.038910002 0.58185101
0.063091002 0.100656 0.571531
0.065334998 0.017666999 0.58764899
0.061464 0.072238997 0.57656097
0.052101001 0.117314 0.56787097
0.053690001 0.10002 0.56955898
0.050051998 0.039258 0.58664501
0.065334998 0.0041430001 0.60772097
0.065334998 0.001909 0.62259001
0.044165999 0.0014750001 0.61683202
0.048447002 0.0043950002 0.61009902
0.049879 0.000267 0.62562901
0.100249 0.040387001 0.130394
0.090956002 0.029929001 0.123273
0.089930996 0.02345 0.135628
0.098329999 0.027633 0.147357
0.10025 0.041510999 0.123066
0.086957 0.018154999 0.107672
0.086576998 0.014712 0.13031299
0.098171003 0.025276 0.15119199
0.101329 0.025013 0.14526001
0.102996 0.026059 0.153789
0.105552 0.031328999 0.150756
0.12411 0.030572999 0.15944999
0.12772501 0.050528001 0.143362
0.12866201 0.022097001 0.161531
0.132441 0.030354001 0.15952501
0.151067 0.030512 0.149525
0.127124 0.023678999 0.16437
0.130484 0.023678999 0.164197
0.12827 0.0027139999 0.153926
0.15339001 0.026086999 0.151077
0.127308 0.050946999 0.135289
0.099932 0.039062999 0.094403997
0.125994 0.049989998 0.104873
0.15416899 0.025036 0.142425
0.15732899 0.027806999 0.14393499
0.098802999 0.043065999 0.082483001
0.090974003 0.016458999 0.073904
0.095314004 0.003365 0.088289
0.090559997 0.0020639999 0.107006
0.091369003 -0.00030000001 0.126577
0.090966001 0.024148 0.065907001
0.097589999 0.085739002 0.058757
0.089478001 0.070046 0.03754
0.12532499 0.093362004 0.067083001
0.130345 0.124267 0.044140998
0.103262 0.121807 0.039354999
0.160955 -0.000227 0.103503
0.16731 0.014712 0.126146
0.164509 0.023515999 0.131605
0.157922 0.025294 0.148018
0.155423 0.001588 0.14096799
0.162159 -0.00030000001 0.122924
0.15969899 0.0014299999 0.123126
0.157699 0.001844 0.109775
0.156303 -0.000459 0.113193
0.147983 0.002533 0.118027
0.150841 -0.00047599999 0.118098
0.15420499 0.00017299999 0.125282
0.152716 0.0028049999 0.129774
0.15801699 -0.00106 0.122351
0.129567 0.004156 0.126653
0.134563 -0.001594 0.144713
0.141846 0.00088399998 0.125542
0.13331801 0.00102 0.129916
0.14383 0.0033420001 0.119416
0.131868 -0.00034 0.15706301
0.148828 0.00069900003 0.14842001
0.081147999 0.20900799 0.012151
0.082975 0.149033 -0.025392
0.084821999 0.115335 0.003735
0.082032003 0.145206 0.013397
0.097851001 0.218648 -0.032752
0.122875 0.211689 -0.000436
0.103099 0.150372 -0.063819997
0.13600899 0.31088901 0.073633
0.12053 0.49245799 0.154213
0.131191 0.42917699 0.17825399
0.142545 0.36463499 0.17903499
0.077014998 0.253436 0.020992
0.055034999 0.294296 0.0079060001
0.039133001 0.27948099 0.091923997
0.05872 0.231415 0.075893
0.093510002 0.119876 0.61884803
0.070822001 0.120951 0.637097
0.036222 0.60899597 0.81271899
0.033089001 0.60417199 0.81821698
0.053918999 0.59374797 0.81629598
0.047371 0.596641 0.80477202
0.053052001 0.58399701 0.80288202
0.076343998 0.59961897 0.80758703
0.071557999 0.62224698 0.83923298
0.054751001 0.614456 0.80580801
0.042066 0.62921798 0.84071201
0.048087999 0.63516098 0.81777
0.075540997 0.63599199 0.81572598
0.091944002 0.59496999 0.82600099
0.092120998 0.62927598 0.83074898
0.084996998 0.65504801 0.84284002
0.072287999 0.65455598 0.834719
0.051465001 0.656201 0.834503
0.042729001 0.63898897 0.84317398
0.072355002 0.61800498 0.85632902
0.054696999 0.62851501 0.85901302
0.039168 0.63524997 0.859752
0.050969001 0.65541399 0.852687
0.064493999 0.67460698 0.86226398
0.068325996 0.67624003 0.872114
0.058630999 0.65793997 0.87592697
0.074201003 0.67300999 0.85828501
0.082153998 0.67232698 0.86003298
0.092938997 0.67507201 0.86665899
0.086297996 0.68890899 0.87731302
0.079769999 0.69251001 0.87887001
0.072710998 0.681979 0.869169
0.079499997 0.68104798 0.86692202
-0.038392998 0.50844699 0.85036898
0.013838 0.50585097 0.94764698
0.01215 0.50668103 0.94708902
0.010481 0.50777203 0.95132798
0.010595 0.50786799 0.95208102
0.017057 0.50827402 0.94730002
0.0091159996 0.51352203 0.95131397
0.0094569996 0.51155603 0.94612998
0.006602 0.51090598 0.94584298
0.003858 0.50761801 0.94561702
0.0057179998 0.508726 0.94944698
0.0043799998 0.51166999 0.95201302
0.014822 0.47846299 0.93584502
0.01311 0.487988 0.94441801
0.002573 0.48601699 0.94243002
0.023491001 0.49118701 0.94563597
0.0052669998 0.49654001 0.94673002
0.02746 0.499854 0.945737
0.038550999 0.49902001 0.93652999
0.031325001 0.47878301 0.928159
0.051739 0.51212102 0.92136103
0.049555 0.50194597 0.921942
0.042486999 0.48805001 0.91852301
0.043223999 0.490192 0.91043198
0.054138001 0.49796799 0.90820801
0.031351 0.325418 0.707973
0.070605002 0.33677199 0.71751797
0.075672999 0.39263701 0.74866498
0.037002999 0.37835899 0.75627297
0.034455001 0.42139199 0.77915502
0.063018002 0.44325 0.77088302
0.033918001 0.451159 0.81471097
0.061186001 0.46879399 0.80259597
0.035762001 0.463034 0.83990997
0.066290997 0.47440499 0.83675301
0 0.40728101 0.79089803
0 0.37012401 0.76127303
0 0.31700301 0.70962
0.028480999 0.31167701 0.684214
0.095964 0.49912199 0.83265799
0.10673 0.52747297 0.82416701
0.098089002 0.52262801 0.7888
0.089342996 0.54998201 0.78260398
0.103644 0.56300801 0.82232898
0.10781 0.56425899 0.85445201
0.095417999 0.49918699 0.86284798
0.063065998 0.47302699 0.85958099
0.100857 0.62825501 0.84773898
0.093144 0.628254 0.84840798
0.087365001 0.60553497 0.84827799
0.094604 0.59500003 0.825854
0.103378 0.58621103 0.85682201
0.093626 0.595734 0.79196799
0.06267 0.61498898 0.78453898
0.029399 0.62272203 0.77426302
0.022515001 0.64195102 0.80357403
0.046824999 0.64533901 0.80489701
0.088572003 0.63527203 0.80913401
0.099517003 0.62874299 0.83073997
0 0.62769997 0.773489
0 0.64454699 0.80012602
0.019185999 0.64163899 0.84228998
0 0.64302099 0.84087902
-0.019185999 0.64163899 0.84228998
-0.022515001 0.64195102 0.80357403
-0.029399 0.62272203 0.77426302
-0.025207 0.64366299 0.84217602
-0.048429001 0.64533901 0.80259901
-0.06267 0.61498898 0.78453898
-0.063415997 0.57195801 0.75781202
0.068832003 0.50612801 0.90417099
0.083632998 0.517295 0.89598799
0.093681 0.53908902 0.884004
0.096607998 0.56974 0.87912297
0.077676997 0.56605899 0.892515
0.072070003 0.60415697 0.88208902
0.107994 0.53662002 0.85625499
0.060892999 0.61336398 0.87330699
0.045763999 0.62090403 0.87690097
0.062084999 0.54556298 0.91081798
0.024194 0.63872999 0.86833203
0.045254 0.543051 0.91325003
0.056954999 0.54868001 0.90828598
0.061441999 0.56123102 0.90709001
0.055978999 0.57156301 0.906946
0.041917998 0.57056099 0.915223
0.057399999 0.546076 0.90361702
0.045728002 0.54069602 0.90844703
0.062717997 0.56115699 0.897358
0.057165001 0.57562101 0.89998102
0.039267998 0.57424903 0.90956903
0.023568001 0.55088401 0.90835398
0.024072001 0.54629499 0.90795702
0.026055001 0.54421002 0.90772998
0.030564999 0.54390198 0.90852201
-0.100249 0.040387001 0.130394
-0.098329999 0.027633 0.147357
-0.089930996 0.02345 0.135628
-0.090956002 0.029929001 0.123273
-0.105552 0.031328999 0.150756
-0.12772401 0.050528001 0.143362
-0.086576 0.014712 0.13031299
-0.098171003 0.025276 0.15119199
-0.101329 0.025013 0.145261
-0.102996 0.026059 0.153789
-0.12411 0.030572999 0.15944999
-0.12866201 0.022097001 0.161531
-0.132441 0.030354001 0.15952501
-0.151067 0.030512 0.149525
-0.127124 0.023678999 0.16437
-0.099930003 0.0015360001 0.14389899
-0.104677 0.0052720001 0.140709
-0.109697 8.9000001e-05 0.15006299
-0.124701 -0.00034 0.157433
-0.089478001 0.070046 0.03754
-0.090974003 0.016458999 0.073904
-0.090559997 0.0020639999 0.107006
-0.095314004 0.003365 0.088289
-0.091369003 -0.00030000001 0.126577
-0.099744998 0.026143 0.13450401
-0.10193 0.019298 0.148725
-0.098700002 0.031151 0.13754401
-0.100183 0.018596999 0.14827999
-0.099630997 0.021247 0.14988901
-0.101378 0.021947 0.150333
-0.102001 0.032476 0.138383
-0.103046 0.027468 0.135343
-0.125884 0.020507 0.162582
-0.12852 0.028702 0.149193
-0.12771501 0.020462999 0.16255701
-0.12496 0.033929002 0.152447
-0.12842201 0.033844002 0.152399
-0.127663 0.023182999 0.164253
-0.12505899 0.028788 0.149242
-0.12583099 0.023228001 0.164278
-0.131845 0.020462999 0.16412701
-0.13265 0.028702 0.15076301
-0.129188 0.028788 0.150812
-0.13179199 0.023182999 0.165823
-0.132552 0.033844002 0.153969
-0.129961 0.023228001 0.165848
-0.130014 0.020507 0.164152
-0.12909 0.03393 0.154017
-0.155808 0.020473 0.14856599
-0.157584 0.019685 0.148073
-0.15757699 0.024584001 0.132689
-0.155356 0.017848 0.146972
-0.157132 0.01706 0.146478
-0.15507799 0.031035 0.13663501
-0.15843301 0.029545 0.135702
-0.154222 0.026075 0.13362201
-0.037999 0.021737 0.67553699
-0.038387001 0.019386999 0.67422402
-0.036095999 0.025242001 0.65951997
-0.036579002 0.018611001 0.67377597
-0.036191002 0.020961 0.67509001
-0.035362002 0.029682999 0.66200203
-0.038778 0.031151 0.662848
-0.039512001 0.026709 0.660366
-0.064386003 0.025490001 0.68957698
-0.062541001 0.025381001 0.68951899
0.032820001 0.49269199 0.90313601
0.034391999 0.49278 0.90064102
0.078373 0.683312 0.86692399
0.074325003 0.675291 0.85678399
0.063507996 0.67709202 0.86144
0.095155001 0.67498398 0.86598998
0.083043002 0.674227 0.85835099
0.061471999 0.678204 0.882604
0.05037 0.65872198 0.87695599
0.079852 0.70057702 0.88914102
0.068650998 0.677549 0.88164598
0.091697998 0.69801199 0.88459301
0.083315 0.69777602 0.88801903
0.089515999 0.69695801 0.88474
0.095885001 0.656138 0.85299402
0.058731001 0.67687601 0.87272698
0.074410997 0.69241399 0.87913603
0.070643 0.68434399 0.86962199
0.031176999 0.63600498 0.865749
0.039710999 0.65872997 0.85248202
0.086631998 0.69109702 0.87573302
0.086773999 0.65651602 0.84147698
0.073063001 0.65689301 0.83348
0.050797999 0.65873802 0.83353603
0.025208 0.64366198 0.84217602
0.093540996 0.65613699 0.85366303
0.055043999 0.53422201 0.86520702
0.060476001 0.532655 0.89213598
0.038313001 0.52707201 0.86766702
0.020606 0.53122598 0.87017798
0.023298001 0.52942002 0.89750302
0.0086859995 0.54509902 0.87177801
0.01043 0.544397 0.89923102
0.0087240003 0.56414402 0.89931703
0.0071060001 0.56339097 0.871858
0.018833 0.58112001 0.89772898
0.01647 0.57911599 0.87038702
0.033702001 0.55657798 0.84798002
0.033199999 0.58626699 0.867926
0.050907999 0.58211201 0.86541599
0.062827997 0.56823897 0.86381501
0.064407997 0.54994702 0.86373502
0.036894999 0.58883899 0.89507198
0.068879001 0.56937802 0.890634
0.070584998 0.54962999 0.89054799
-0.032648999 0.54018301 0.91060299
-0.024796 0.549339 0.91175801
-0.040252 0.553855 0.90931201
-0.039772 0.559071 0.90932602
-0.023755001 0.56141299 0.91182297
-0.040548 0.56303501 0.909159
-0.029925 0.57178903 0.91077501
-0.042196002 0.564807 0.90888101
-0.040947001 0.57650501 0.90901297
-0.052609 0.57375997 0.90721101
-0.044112999 0.56351298 0.90859699
-0.045570001 0.55963701 0.90841502
-0.060458001 0.564605 0.90605599
-0.045993 0.55463701 0.90840697
-0.061498001 0.55253601 0.90599102
-0.045267999 0.55029899 0.908571
-0.055333 0.54216099 0.90703797
-0.043607999 0.54869998 0.90884799
-0.044314001 0.53744102 0.90880001
-0.041701999 0.550053 0.90912998
0.039399002 0.60278302 -0.110492
0.029568 0.62535602 -0.097193003
0.032754999 0.576729 -0.024852
0.029259 0.699 -0.170987
0.038201001 0.68418401 -0.189766
0.024146 0.77960098 -0.23700599
0.031810001 0.76690203 -0.25310099
0.019517001 0.8567 -0.29460001
0.01271 0.91281301 -0.33960599
0.025508 0.84677303 -0.307183
0.020896001 0.758717 -0.26814699
0.025469 0.67463398 -0.20731799
0.025386 0.586227 -0.124658
0.044284001 0.543957 -0.036584999
0.028333999 0.51563197 -0.046271
0 0.58339798 -0.125669
0 0.51705903 -0.050514001
0.016785 0.90606099 -0.34816301
0.016976999 0.84037399 -0.31894499
0 0.756607 -0.27284801
0 0.83872497 -0.32261899
0.010983 0.90170997 -0.35616201
0 0.90058798 -0.358661
0.069886997 0.280166 0.53319001
0.093552999 0.274203 0.55539
0.067092001 0.211897 0.55276501
0.042807002 0.200773 0.57269299
0 0.285097 0.26763901
0 0.28926301 0.352467
0 0.29667801 0.432109
0 0.29427701 0.50839901
0 0.27817401 0.586936
-0.024899 0.50799799 0.914949
-0.141845 0.00088399998 0.125542
-0.13331699 0.00102 0.129916
-0.134563 -0.001594 0.144713
-0.14303599 -0.000871 0.142849
-0.146422 0.001876 0.146331
-0.14383 0.0033420001 0.119416
-0.148828 0.00069900003 0.14842001
0.084392004 0.00211 0.67343599
0.083155997 0.0036210001 0.64564002
0.080792002 0.001092 0.65183002
0.071796 0.001232 0.65587199
0.086754002 0.00089999998 0.67571002
0.072291002 -0.001458 0.67114401
0.081097998 -0.00071400002 0.66967797
-0.036637999 0.48645401 0.88822597
0.109697 8.9000001e-05 0.15006299
0.035944998 0.466764 0.86066097
0 0.45867699 0.841721
0 0.43993101 0.81948799
-0.031176999 0.63600498 0.865749
-0.024194 0.63872999 0.86833203
-0.039026 0.50568002 0.87002403
0.070161 -0.00016900001 0.68369299
0.049878001 0.001092 0.65183002
0.046278 0.002045 0.6735
-0.031072 0.49823299 0.89392
0 0.29722199 0.095847003
0.033893 0.34994701 -0.019369001
-0.033891998 0.34994701 -0.019369001
-0.02224 0.29641899 0.090672001
-0.039868001 0.49384201 0.86616999
0.029362001 0.49898201 -0.040975001
-0.017191 0.479155 0.89349002
-0.026378 0.48034 0.89841098
0.145079 0.001707 0.117517
0.15036 0.0065259999 0.138034
-0.011958 0.47068399 0.91569102
0.111844 0.00088399998 0.12709101
0.109436 0.0018119999 0.148302
0 0.47001299 0.92126399
0 0.494721 0.92830998
0 0.51275998 0.92306697
0 0.475777 0.890221
0.0063410001 0.496218 0.92461902
0.015737001 0.51138002 0.919433
-0.019946 0.48463601 0.83846003
0.014821 0.53039998 0.86087799
-0.035386998 0.49241501 0.84950298
0 0.51353502 0.82633299
0.019579999 0.51295799 0.83196002
-0.019579999 0.51295799 0.83196002
0 0.53319597 0.86045301
0 0.48280901 0.83295202
-0.03559 0.51759303 0.87140399
-0.014821 0.52512598 0.90323597
-0.014821 0.53039998 0.86087799
0.019946 0.48463601 0.83846003
-0.013228 0.49649099 0.92114598
0.035386998 0.49241501 0.84950298
0.011958 0.47068399 0.91569102
0.017191 0.479155 0.89349002
-0.0081240004 0.279935 0.58445501
-0.022371 0.283187 0.58134598
0.019404 0.474029 0.90976298
-0.15036 0.0065259999 0.138034
0.036637999 0.48645401 0.88822597
-0.049878001 0.001092 0.65183002
0.038392998 0.50844699 0.85036898
0.039868999 0.49384201 0.86616999
-0.088880002 0.0080660004 0.66551101
-0.093925998 0.003084 0.66893899
0.026378 0.48034 0.89841098
0.018103 0.477155 0.92205501
0.053537998 0.65763497 0.872006
0.035392001 0.63543701 0.85763699
0.062052 0.617181 0.86788303
0.076435 0.651241 0.87988698
0.066615 0.67690498 0.87952697
0.081005998 0.67124498 0.88149399
0.081286997 0.69644099 0.88606298
0.086140998 0.69630498 0.88432503
0.089447998 0.69200897 0.88302398
0.092188001 0.66759199 0.863195
0.094462 0.64448798 0.85212803
0.088875003 0.60493499 0.840891
0.015775001 0.48264199 0.92249101
0.039026 0.50568002 0.87002403
0.022217 0.49723199 0.909661
0.024899 0.50799799 0.914949
0.02758 0.498891 0.90157503
0.011852 0.48373801 0.83823299
0.014821 0.52512598 0.90323597
0.03559 0.51759303 0.87140399
0.031030999 0.51465499 0.90419102
0 0.52875298 0.902004
0.0061730002 0.47780001 0.92317599
0.022186 0.49148899 0.91541499
0.022565 0.48616901 0.91767198
0.016086999 0.483309 0.92148101
0.015969001 0.478127 0.91867101
0.012469 0.477833 0.920807
-0.015969001 0.478127 0.91867101
-0.016278001 0.49001399 0.92315799
-0.031886 0.49305001 0.89868098
-0.030314 0.49296299 0.90117699
-0.030709 0.49051201 0.90056199
-0.026138 0.489434 0.90617102
-0.025333 0.489777 0.907565
-0.022222999 0.490468 0.91594601
-0.021373 0.47995499 0.91025501
-0.02259 0.48616901 0.91764498
-0.022186 0.49148899 0.91541499
-0.0034050001 0.48262599 0.92645198
-0.0078110001 0.482315 0.92601401
-0.0084830001 0.48816401 0.92756498
-0.0041609998 0.48831099 0.92839301
-0.012878 0.483165 0.923024
0.00025000001 0.47742701 0.924703
-0.0039169998 0.47739401 0.92435002
-0.0072960001 0.47747701 0.92325503
-0.0075090001 0.48307401 0.92564303
-0.0061730002 0.47780001 0.92317599
-0.011759 0.47798401 0.92045099
0.031557001 0.49010599 0.89916098
0.030314 0.49296299 0.90117699
0.025327999 0.485275 0.90726101
0.027277 0.48164499 0.90428299
0.024929 0.480665 0.90641701
0.026138 0.489434 0.90617102
0.025333 0.489777 0.907565
0.026548 0.492318 0.90587199
0.020816 0.48310399 0.911717
0.021373 0.47995499 0.91025501
0.0041609998 0.48831099 0.92839301
0.0078110001 0.482315 0.92601401
0.0087029999 0.48278201 0.92437601
0.0067889998 0.48850301 0.92726701
0.012881 0.48909599 0.92520398
0.003399 0.48295301 0.92603201
0.0036279999 0.48302799 0.92634702
0.003001 0.477366 0.92421597
0.0086239995 0.47619399 0.92719901
0.0094809998 0.48269799 0.92672598
-0.013268 0.48307201 0.92320198
-0.012469 0.477833 0.920807
0.018829999 0.48607501 0.91995001
0.017031001 0.491359 0.91856599
0 0.47926 0.83841997
-0.011852 0.48373801 0.83823299
0.017202999 0.50528401 0.85702801
-0.031557001 0.49010599 0.89916098
-0.033066001 0.489941 0.90040302
-0.034391999 0.49278 0.90064102
-0.026993001 0.485342 0.90876299
-0.027584 0.48074999 0.90892798
-0.024929 0.480665 0.90641701
-0.026548 0.492318 0.90587199
-0.027612999 0.48914301 0.90734702
-0.028998001 0.49184501 0.90772599
-0.023287 0.48972899 0.916785
-0.022295 0.48843399 0.91500503
-0.019252 0.47906899 0.91218299
-0.021117 0.48329499 0.914303
-0.017031001 0.491359 0.91856599
-0.018854 0.48607501 0.91992402
-0.021114999 0.48537999 0.92359197
-0.020974999 0.477566 0.91945797
-0.00064599997 0.48208699 0.92847198
-0.000558 0.482777 0.92658299
-0.000321 0.48817301 0.928774
-0.005014 0.48708299 0.93158299
-0.00465 0.48173901 0.92852998
-0.0067889998 0.48850301 0.92726701
-0.0087029999 0.48278201 0.92437601
-0.00055200001 0.48297799 0.92626703
-0.003001 0.477366 0.92421597
-0.0094809998 0.48269799 0.92672598
0.031886 0.49305001 0.89868098
0.033066001 0.489941 0.90040302
0.028998001 0.49184501 0.90772599
0.022774 0.488143 0.91531003
0.023287 0.48972899 0.916785
0.022222999 0.490468 0.91594601
0.021651 0.47914699 0.91445202
0.021117 0.48329499 0.914303
0.019611999 0.483235 0.912947
0.019252 0.47906899 0.91218299
0.000321 0.48817301 0.928774
0.00465 0.48173901 0.92852998
0.010058 0.48178101 0.92706001
-0.00025000001 0.47742701 0.924703
0.014692 0.49894601 0.89156598
0.017154001 0.502545 0.85767001
-0.017154001 0.502545 0.85767001
0 0.50100201 0.85712701
-0.017202999 0.50528401 0.85702801
-0.014532 0.50172502 0.89336002
0.014532 0.50172502 0.89336002
0.014603 0.47685999 0.924191
0.014987 0.48228899 0.92592603
0.013268 0.48307201 0.92320198
0.015167 0.48991999 0.92383599
0.012968 0.47975901 0.84350502
0 0.4858 0.86318201
0 0.47301599 0.84798002
-0.012968 0.47975901 0.84350502
0 0.49777699 0.899315
-0.014692 0.49894601 0.89156598
0 0.4869 0.89547199
0 0.48270699 0.929838
0 0.48093799 0.92865598
0.015671 0.484411 0.92366099
0.023358 0.48089701 0.90855598
0.0041220002 0.476309 0.92743599
0.0039169998 0.47739401 0.92435002
0.0075090001 0.48307401 0.92564303
0.0072960001 0.47747701 0.92325503
0.011748 0.48378399 0.92249203
0.011759 0.47798401 0.92045099
0.016278001 0.49001399 0.92315799
0.017805001 0.482526 0.92420602
-0.033941001 0.483749 0.90310699
-0.022978 0.488765 0.91103899
-0.022318 0.491642 0.912485
-0.024556 0.49011001 0.91554397
-0.023491001 0.49084899 0.91470498
-0.023083 0.48863599 0.91429597
-0.003399 0.48295301 0.92603201
-0.0041220002 0.476309 0.92743599
-0.0083229998 0.476376 0.92644
0.029805999 0.48943701 0.90540701
0.030019 0.49233699 0.90742499
0.027512999 0.492607 0.90546501
0.031287 0.48366299 0.90059602
0.024768 0.49116901 0.91433901
0.022318 0.491642 0.912485
0.023491001 0.49084899 0.91470498
-0.025343999 0.48554301 0.91046
-0.021489 0.477842 0.91737098
-0.024851 0.48547399 0.92131197
