# .PCD v0.7 - Point Cloud Data file format
VERSION 0.7
FIELDS x y z
SIZE 4 4 4
TYPE F F F
COUNT 1 1 1
WIDTH 1986
HEIGHT 1
VIEWPOINT 0 0 0 1 0 0 0
POINTS 1986
DATA ascii
23.444901 35.380001 130.25529
22.444901 35.380001 129.5789
23.444901 36.380001 130.25529
22.444901 36.380001 129.5789
15.9738 35.380001 130.25529
15.9738 36.380001 130.25529
15.9738 36.380001 129.5789
15.9738 35.380001 129.5789
24.444901 34.380001 126.6829
21.444901 34.380001 126.6829
24.444901 37.380001 126.6829
21.444901 37.380001 126.6829
22.444901 35.380001 126.6829
23.444901 35.380001 126.6829
23.444901 36.380001 126.6829
22.444901 36.380001 126.6829
22.444901 35.380001 125.5228
23.444901 35.380001 124.8464
23.444901 36.380001 124.8464
22.444901 36.380001 125.5228
15.9738 35.380001 124.8464
15.9738 35.380001 125.5228
15.9738 36.380001 125.5228
15.9738 36.380001 124.8464
-106.7594 45.0909 -1.8006001
-106.7594 45.0909 -21.8006
-106.7594 38.9091 -21.8006
-106.7594 38.9091 -1.8006001
-106.7594 82 -27.8006
-106.7594 0.64410001 -27.8006
-106.7594 8 -21.8006
-106.7594 14.1818 -21.8006
-106.7594 20.3636 -21.8006
-106.7594 26.5455 -21.8006
-106.7594 32.727299 -21.8006
-106.7594 51.272701 -21.8006
-106.7594 57.454498 -21.8006
-106.7594 63.636398 -21.8006
-106.7594 69.818199 -21.8006
-106.7594 76 -21.8006
-106.7594 8 -1.8006001
-106.7594 0.64410001 4.1993999
-106.7594 82 4.1993999
-106.7594 76 -1.8006001
-106.7594 69.818199 -1.8006001
-106.7594 63.636398 -1.8006001
-106.7594 57.454498 -1.8006001
-106.7594 51.272701 -1.8006001
-106.7594 32.727299 -1.8006001
-106.7594 26.5455 -1.8006001
-106.7594 20.3636 -1.8006001
-106.7594 14.1818 -1.8006001
-105.7594 38.9091 -21.8006
-105.7594 45.0909 -21.8006
-105.7594 45.0909 -1.8006001
-105.7594 38.9091 -1.8006001
-105.7594 8 -21.8006
-105.7594 0.64410001 -27.8006
-105.7594 82 -27.8006
-105.7594 14.1818 -21.8006
-105.7594 76 -21.8006
-105.7594 69.818199 -21.8006
-105.7594 63.636398 -21.8006
-105.7594 57.454498 -21.8006
-105.7594 51.272701 -21.8006
-105.7594 32.727299 -21.8006
-105.7594 26.5455 -21.8006
-105.7594 20.3636 -21.8006
-105.7594 8 -1.8006001
-105.7594 0.64410001 4.1993999
-105.7594 76 -1.8006001
-105.7594 82 4.1993999
-105.7594 69.818199 -1.8006001
-105.7594 14.1818 -1.8006001
-105.7594 20.3636 -1.8006001
-105.7594 26.5455 -1.8006001
-105.7594 32.727299 -1.8006001
-105.7594 51.272701 -1.8006001
-105.7594 57.454498 -1.8006001
-105.7594 63.636398 -1.8006001
-108.9883 0.64410001 -27.8006
-108.9883 82 -27.8006
-108.9883 84 -29.8006
-108.9883 0 -29.8006
-108.9883 0.64410001 4.1993999
-108.9884 0 6.1993999
-108.9884 82 4.1993999
-108.9884 84 6.1993999
-103.5741 84 -29.8006
-103.5741 82 -27.8006
-103.5741 0.64410001 -27.8006
-103.5741 0 -29.8006
-103.5741 0.64410001 4.1993999
-103.5741 0 6.1993999
-103.5741 82 4.1993999
-103.5741 84 6.1993999
-106.3665 14.1818 -1.8006001
-106.3665 14.1818 -21.8006
-106.3665 8 -21.8006
-106.3665 8 -1.8006001
-106.3665 26.5455 -1.8006001
-106.3665 26.5455 -21.8006
-106.3665 20.3636 -21.8006
-106.3665 20.3636 -1.8006001
-106.3665 38.9091 -1.8006001
-106.3665 38.9091 -21.8006
-106.3665 32.727299 -21.8006
-106.3665 32.727299 -1.8006001
-106.3665 69.818199 -21.8006
-106.3665 69.818199 -1.8006001
-106.3665 76 -1.8006001
-106.3665 76 -21.8006
-106.3665 57.454498 -21.8006
-106.3665 57.454498 -1.8006001
-106.3665 63.636398 -1.8006001
-106.3665 63.636398 -21.8006
-106.3665 45.0909 -21.8006
-106.3665 45.0909 -1.8006001
-106.3665 51.272701 -1.8006001
-106.3665 51.272701 -21.8006
-106.1165 8 -21.8006
-106.1165 14.1818 -21.8006
-106.1165 14.1818 -1.8006001
-106.1165 8 -1.8006001
-106.1165 20.3636 -21.8006
-106.1165 26.5455 -21.8006
-106.1165 26.5455 -1.8006001
-106.1165 20.3636 -1.8006001
-106.1165 32.727299 -21.8006
-106.1165 38.9091 -21.8006
-106.1165 38.9091 -1.8006001
-106.1165 32.727299 -1.8006001
-106.1165 76 -1.8006001
-106.1165 69.818199 -1.8006001
-106.1165 69.818199 -21.8006
-106.1165 76 -21.8006
-106.1165 63.636398 -1.8006001
-106.1165 57.454498 -1.8006001
-106.1165 57.454498 -21.8006
-106.1165 63.636398 -21.8006
-106.1165 51.272701 -1.8006001
-106.1165 45.0909 -1.8006001
-106.1165 45.0909 -21.8006
-106.1165 51.272701 -21.8006
-107.059 34.380001 0.1104
-107.059 34.380001 3.1104
-107.059 35.380001 2.1104
-107.059 35.380001 1.1104
-107.059 37.380001 3.1104
-107.059 36.380001 2.1104
-107.059 37.380001 0.1104
-107.059 36.380001 1.1104
-108.9821 35.380001 2.1104
-108.3057 35.380001 1.1104
-108.9821 36.380001 2.1104
-108.3057 36.380001 1.1104
-108.9821 35.380001 -5.3607001
-108.9821 36.380001 -5.3607001
-108.3057 36.380001 -5.3607001
-108.3057 35.380001 -5.3607001
-105.4097 34.380001 3.1104
-105.4097 34.380001 0.1104
-105.4097 37.380001 3.1104
-105.4097 37.380001 0.1104
-105.4097 35.380001 1.1104
-105.4097 35.380001 2.1104
-105.4097 36.380001 2.1104
-105.4097 36.380001 1.1104
-104.2496 35.380001 1.1104
-103.5732 35.380001 2.1104
-103.5732 36.380001 2.1104
-104.2496 36.380001 1.1104
-103.5732 35.380001 -5.3607001
-104.2496 35.380001 -5.3607001
-104.2496 36.380001 -5.3607001
-103.5732 36.380001 -5.3607001
-108.9884 31 -82.092499
-108.9884 83 -82.092499
-108.9884 84 -83.092499
-108.9884 30 -83.092499
-108.9884 31 -52.354698
-108.9884 30 -51.354698
-108.9884 83 -52.354698
-108.9884 84 -51.354698
-103.5742 84 -83.092499
-103.5742 83 -82.092499
-103.5742 31 -82.092499
-103.5742 30 -83.092499
-103.5742 31 -52.354698
-103.5742 30 -51.354698
-103.5742 83 -52.354698
-103.5742 84 -51.354698
-107.117 32 -81.092499
-107.117 54.495499 -81.092499
-107.117 55.495499 -82.092499
-107.117 31 -82.092499
-107.117 32 -53.354698
-107.117 31 -52.354698
-107.117 54.495499 -53.354698
-107.117 55.495499 -52.354698
-106.117 55.495499 -82.092499
-106.117 54.495499 -81.092499
-106.117 32 -81.092499
-106.117 31 -82.092499
-106.117 32 -53.354698
-106.117 31 -52.354698
-106.117 54.495499 -53.354698
-106.117 55.495499 -52.354698
-106.801 54.495499 -53.354698
-106.801 54.495499 -81.092499
-106.801 32 -81.092499
-106.801 32 -53.354698
-106.551 32 -81.092499
-106.551 54.495499 -81.092499
-106.551 54.495499 -53.354698
-106.551 32 -53.354698
-106.117 56.495499 -81.092499
-106.117 82 -81.092499
-106.117 83 -82.092499
-106.117 56.495499 -53.354698
-106.117 82 -53.354698
-106.117 83 -52.354698
-105.117 83 -82.092499
-105.117 82 -81.092499
-105.117 56.495499 -81.092499
-105.117 55.495499 -82.092499
-105.117 56.495499 -53.354698
-105.117 55.495499 -52.354698
-105.117 82 -53.354698
-105.117 83 -52.354698
-105.801 82 -53.354698
-105.801 82 -81.092499
-105.801 56.495499 -81.092499
-105.801 56.495499 -53.354698
-105.551 56.495499 -81.092499
-105.551 82 -81.092499
-105.551 82 -53.354698
-105.551 56.495499 -53.354698
95.012901 31 -104.3242
49.012901 31 -104.3242
48.012901 30 -104.3242
96.012901 30 -104.3242
95.012802 83 -104.3242
96.012802 84 -104.3242
49.012798 83 -104.3242
48.012798 84 -104.3242
48.012901 30 -109.7384
49.012901 31 -109.7384
95.012901 31 -109.7384
96.012901 30 -109.7384
95.012802 83 -109.7384
96.012802 84 -109.7384
49.012798 83 -109.7384
48.012798 84 -109.7384
94.012901 32 -106.1956
73.623001 32 -106.1956
72.623001 31 -106.1956
95.012901 31 -106.1956
94.012802 82 -106.1956
95.012802 83 -106.1956
73.623001 82 -106.1956
72.623001 83 -106.1956
72.623001 31 -107.1956
73.623001 32 -107.1956
94.012901 32 -107.1956
95.012901 31 -107.1956
94.012802 82 -107.1956
95.012802 83 -107.1956
73.623001 82 -107.1956
72.623001 83 -107.1956
73.623001 82 -106.5116
73.623001 32 -106.5116
94.012901 32 -106.5116
94.012802 82 -106.5116
94.012901 32 -106.7616
73.623001 32 -106.7616
73.623001 82 -106.7616
94.012802 82 -106.7616
71.623001 32 -107.1956
50.012901 32 -107.1956
49.012901 31 -107.1956
71.623001 82 -107.1956
50.012798 82 -107.1956
49.012798 83 -107.1956
49.012901 31 -108.1956
50.012901 32 -108.1956
71.623001 32 -108.1956
72.623001 31 -108.1956
71.623001 82 -108.1956
72.623001 83 -108.1956
50.012798 82 -108.1956
49.012798 83 -108.1956
50.012798 82 -107.5116
50.012901 32 -107.5116
71.623001 32 -107.5116
71.623001 82 -107.5116
71.623001 32 -107.7616
50.012901 32 -107.7616
50.012798 82 -107.7616
71.623001 82 -107.7616
10.764 1 -104.3242
-79.236 1 -104.3242
-80.236 -0 -104.3242
11.764 -0 -104.3242
10.7639 83 -104.3242
11.7639 84 -104.3242
-79.236099 83 -104.3242
-80.236099 84 -104.3242
-80.236 -0 -109.7384
-79.236 1 -109.7384
10.764 1 -109.7384
11.764 -0 -109.7384
10.7639 83 -109.7384
11.7639 84 -109.7384
-79.236099 83 -109.7384
-80.236099 84 -109.7384
-55.236 7 -105.2635
-73.236 7 -105.2635
-79.236 1 -105.2635
-49.236 1 -105.2635
-55.236099 77 -105.2635
-49.236099 83 -105.2635
-73.236099 77 -105.2635
-79.236099 83 -105.2635
-79.236 1 -106.2635
-73.236 7 -106.2635
-55.236 7 -106.2635
-49.236 1 -106.2635
-55.236099 77 -106.2635
-49.236099 83 -106.2635
-73.236099 77 -106.2635
-79.236099 83 -106.2635
-73.236099 77 -105.5795
-73.236 7 -105.5795
-55.236 7 -105.5795
-55.236099 77 -105.5795
-55.236 7 -105.8295
-73.236 7 -105.8295
-73.236099 77 -105.8295
-55.236099 77 -105.8295
-25.236 7 -106.2635
-43.236 7 -106.2635
-19.236 1 -106.2635
-25.236099 77 -106.2635
-19.236099 83 -106.2635
-43.236099 77 -106.2635
-49.236 1 -107.2635
-43.236 7 -107.2635
-25.236 7 -107.2635
-19.236 1 -107.2635
-25.236099 77 -107.2635
-19.236099 83 -107.2635
-43.236099 77 -107.2635
-49.236099 83 -107.2635
-43.236099 77 -106.5795
-43.236 7 -106.5795
-25.236 7 -106.5795
-25.236099 77 -106.5795
-25.236 7 -106.8295
-43.236 7 -106.8295
-43.236099 77 -106.8295
-25.236099 77 -106.8295
4.7639999 7 -107.2635
-13.236 7 -107.2635
10.764 1 -107.2635
4.7638998 77 -107.2635
10.7639 83 -107.2635
-13.2361 77 -107.2635
-19.236 1 -108.2635
-13.236 7 -108.2635
4.7639999 7 -108.2635
10.764 1 -108.2635
4.7638998 77 -108.2635
10.7639 83 -108.2635
-13.2361 77 -108.2635
-19.236099 83 -108.2635
-13.2361 77 -107.5795
-13.236 7 -107.5795
4.7639999 7 -107.5795
4.7638998 77 -107.5795
4.7639999 7 -107.8295
-13.236 7 -107.8295
-13.2361 77 -107.8295
4.7638998 77 -107.8295
125.451 31 -49.016701
125.451 83 -49.016701
125.451 84 -50.016701
125.451 30 -50.016701
125.451 31 -16.7871
125.451 30 -15.7871
125.451 83 -16.7871
125.451 84 -15.7871
130.8652 84 -50.016701
130.8652 83 -49.016701
130.8652 31 -49.016701
130.8652 30 -50.016701
130.8652 31 -16.7871
130.8652 30 -15.7871
130.8652 83 -16.7871
130.8652 84 -15.7871
127.3223 32 -48.016701
127.3223 54.495499 -48.016701
127.3223 55.495499 -49.016701
127.3223 31 -49.016701
127.3223 32 -17.7871
127.3223 31 -16.7871
127.3223 54.495499 -17.7871
127.3223 55.495499 -16.7871
128.3223 55.495499 -49.016701
128.3223 54.495499 -48.016701
128.3223 32 -48.016701
128.3223 31 -49.016701
128.3223 32 -17.7871
128.3223 31 -16.7871
128.3223 54.495499 -17.7871
128.3223 55.495499 -16.7871
127.6383 54.495499 -17.7871
127.6383 54.495499 -48.016701
127.6383 32 -48.016701
127.6383 32 -17.7871
127.8883 32 -48.016701
127.8883 54.495499 -48.016701
127.8883 54.495499 -17.7871
127.8883 32 -17.7871
128.3223 56.495499 -48.016701
128.3223 82 -48.016701
128.3223 83 -49.016701
128.3223 56.495499 -17.7871
128.3223 82 -17.7871
128.3223 83 -16.7871
129.3223 83 -49.016701
129.3223 82 -48.016701
129.3223 56.495499 -48.016701
129.3223 55.495499 -49.016701
129.3223 56.495499 -17.7871
129.3223 55.495499 -16.7871
129.3223 82 -17.7871
129.3223 83 -16.7871
128.63831 82 -17.7871
128.63831 82 -48.016701
128.63831 56.495499 -48.016701
128.63831 56.495499 -17.7871
128.88831 56.495499 -48.016701
128.88831 82 -48.016701
128.88831 82 -17.7871
128.88831 56.495499 -17.7871
130.8652 25 110.7281
130.8652 25 156.7281
130.8652 24 157.7281
130.8652 24 109.7281
130.8652 77 110.7281
130.8652 78 109.7281
130.8652 77 156.7281
130.8652 78 157.7281
125.451 24 157.7281
125.451 25 156.7281
125.451 25 110.7281
125.451 24 109.7281
125.451 77 110.7281
125.451 78 109.7281
125.451 77 156.7281
125.451 78 157.7281
128.9938 26 111.7281
128.9938 26 132.1179
128.9938 25 133.1179
128.9938 25 110.7281
128.9938 76 111.7281
128.9938 77 110.7281
128.9938 76 132.1179
128.9938 77 133.1179
127.9938 25 133.1179
127.9938 26 132.1179
127.9938 26 111.7281
127.9938 25 110.7281
127.9938 76 111.7281
127.9938 77 110.7281
127.9938 76 132.1179
127.9938 77 133.1179
128.6778 76 132.1179
128.6778 26 132.1179
128.6778 26 111.7281
128.6778 76 111.7281
128.4278 26 111.7281
128.4278 26 132.1179
128.4278 76 132.1179
128.4278 76 111.7281
127.9938 26 134.1179
127.9939 26 155.7281
127.9939 25 156.7281
127.9938 76 134.1179
127.9938 76 155.7281
127.9938 77 156.7281
126.9939 25 156.7281
126.9939 26 155.7281
126.9938 26 134.1179
126.9938 25 133.1179
126.9938 76 134.1179
126.9938 77 133.1179
126.9938 76 155.7281
126.9938 77 156.7281
127.6778 76 155.7281
127.6778 26 155.7281
127.6778 26 134.1179
127.6778 76 134.1179
127.4278 26 134.1179
127.4278 26 155.7281
127.4278 76 155.7281
127.4278 76 134.1179
125.451 145 -52.543701
125.451 179 -52.543701
125.451 180 -53.543701
125.451 144 -53.543701
125.451 145 -22.9331
125.451 144 -21.9331
125.451 179 -22.9331
125.451 180 -21.9331
130.8652 180 -53.543701
130.8652 179 -52.543701
130.8652 145 -52.543701
130.8652 144 -53.543701
130.8652 145 -22.9331
130.8652 144 -21.9331
130.8652 179 -22.9331
130.8652 180 -21.9331
127.3223 146 -51.543701
127.3223 159.9975 -51.543701
127.3223 160.9975 -52.543701
127.3223 145 -52.543701
127.3223 146 -23.9331
127.3223 145 -22.9331
127.3223 159.9975 -23.9331
127.3223 160.9975 -22.9331
128.3223 160.9975 -52.543701
128.3223 159.9975 -51.543701
128.3223 146 -51.543701
128.3223 145 -52.543701
128.3223 146 -23.9331
128.3223 145 -22.9331
128.3223 159.9975 -23.9331
128.3223 160.9975 -22.9331
127.6383 159.9975 -23.9331
127.6383 159.9975 -51.543701
127.6383 146 -51.543701
127.6383 146 -23.9331
127.8883 146 -51.543701
127.8883 159.9975 -51.543701
127.8883 159.9975 -23.9331
127.8883 146 -23.9331
128.3223 161.9975 -51.543701
128.3223 178 -51.543701
128.3223 179 -52.543701
128.3223 161.9975 -23.9331
128.3223 178 -23.9331
128.3223 179 -22.9331
129.3223 179 -52.543701
129.3223 178 -51.543701
129.3223 161.9975 -51.543701
129.3223 160.9975 -52.543701
129.3223 161.9975 -23.9331
129.3223 160.9975 -22.9331
129.3223 178 -23.9331
129.3223 179 -22.9331
128.63831 178 -23.9331
128.63831 178 -51.543701
128.63831 161.9975 -51.543701
128.63831 161.9975 -23.9331
128.88831 161.9975 -51.543701
128.88831 178 -51.543701
128.88831 178 -23.9331
128.88831 161.9975 -23.9331
130.8652 129 35.2616
130.8652 129 81.261597
130.8652 128 82.261597
130.8652 128 34.2616
130.8652 179 35.2616
130.8652 180 34.2616
130.8652 179 81.261597
130.8652 180 82.261597
125.451 128 82.261597
125.451 129 81.261597
125.451 129 35.2616
125.451 128 34.2616
125.451 179 35.2616
125.451 180 34.2616
125.451 179 81.261597
125.451 180 82.261597
128.9938 130 36.2616
128.9938 130 56.651402
128.9938 129 57.651402
128.9938 129 35.2616
128.9938 178 36.2616
128.9938 179 35.2616
128.9938 178 56.651402
128.9938 179 57.651402
127.9938 129 57.651402
127.9938 130 56.651402
127.9938 130 36.2616
127.9938 129 35.2616
127.9938 178 36.2616
127.9938 179 35.2616
127.9938 178 56.651402
127.9938 179 57.651402
128.6778 178 56.651402
128.6778 130 56.651402
128.6778 130 36.2616
128.6778 178 36.2616
128.4278 130 36.2616
128.4278 130 56.651402
128.4278 178 56.651402
128.4278 178 36.2616
127.9938 130 58.651402
127.9939 130 80.261597
127.9939 129 81.261597
127.9938 178 58.651402
127.9938 178 80.261597
127.9938 179 81.261597
126.9939 129 81.261597
126.9939 130 80.261597
126.9938 130 58.651402
126.9938 129 57.651402
126.9938 178 58.651402
126.9938 179 57.651402
126.9938 178 80.261597
126.9938 179 81.261597
127.6778 178 80.261597
127.6778 130 80.261597
127.6778 130 58.651402
127.6778 178 58.651402
127.4278 130 58.651402
127.4278 130 80.261597
127.4278 178 80.261597
127.4278 178 58.651402
-109.1348 129 -28.8006
-109.1348 179 -28.8006
-109.1348 180 -29.8006
-109.1348 128 -29.8006
-109.1348 129 -4.1546001
-109.1348 128 -3.1545999
-109.1348 179 -4.1546001
-109.1348 180 -3.1545999
-103.7206 180 -29.8006
-103.7206 179 -28.8006
-103.7206 129 -28.8006
-103.7206 128 -29.8006
-103.7206 129 -4.1546001
-103.7206 128 -3.1545999
-103.7206 179 -4.1546001
-103.7206 180 -3.1545999
-107.2635 130 -27.8006
-107.2635 144.2204 -27.8006
-107.2635 145.2204 -28.8006
-107.2635 129 -28.8006
-107.2635 130 -5.1546001
-107.2635 129 -4.1546001
-107.2635 144.2204 -5.1546001
-107.2635 145.2204 -4.1546001
-106.2635 145.2204 -28.8006
-106.2635 144.2204 -27.8006
-106.2635 130 -27.8006
-106.2635 129 -28.8006
-106.2635 130 -5.1546001
-106.2635 129 -4.1546001
-106.2635 144.2204 -5.1546001
-106.2635 145.2204 -4.1546001
-106.9475 144.2204 -5.1546001
-106.9475 144.2204 -27.8006
-106.9475 130 -27.8006
-106.9475 130 -5.1546001
-106.6975 130 -27.8006
-106.6975 144.2204 -27.8006
-106.6975 144.2204 -5.1546001
-106.6975 130 -5.1546001
-106.2635 146.2204 -27.8006
-106.2635 178 -27.8006
-106.2635 179 -28.8006
-106.2635 146.2204 -5.1546001
-106.2635 178 -5.1546001
-106.2635 179 -4.1546001
-105.2635 179 -28.8006
-105.2635 178 -27.8006
-105.2635 146.2204 -27.8006
-105.2635 145.2204 -28.8006
-105.2635 146.2204 -5.1546001
-105.2635 145.2204 -4.1546001
-105.2635 178 -5.1546001
-105.2635 179 -4.1546001
-105.9475 178 -5.1546001
-105.9475 178 -27.8006
-105.9475 146.2204 -27.8006
-105.9475 146.2204 -5.1546001
-105.6975 146.2204 -27.8006
-105.6975 178 -27.8006
-105.6975 178 -5.1546001
-105.6975 146.2204 -5.1546001
-109.1348 129 -82.092499
-109.1348 179 -82.092499
-109.1348 180 -83.092499
-109.1348 128 -83.092499
-109.1348 129 -57.446499
-109.1348 128 -56.446499
-109.1348 179 -57.446499
-109.1348 180 -56.446499
-103.7206 180 -83.092499
-103.7206 179 -82.092499
-103.7206 129 -82.092499
-103.7206 128 -83.092499
-103.7206 129 -57.446499
-103.7206 128 -56.446499
-103.7206 179 -57.446499
-103.7206 180 -56.446499
-107.2635 130 -81.092499
-107.2635 144.2204 -81.092499
-107.2635 145.2204 -82.092499
-107.2635 129 -82.092499
-107.2635 130 -58.446499
-107.2635 129 -57.446499
-107.2635 144.2204 -58.446499
-107.2635 145.2204 -57.446499
-106.2635 145.2204 -82.092499
-106.2635 144.2204 -81.092499
-106.2635 130 -81.092499
-106.2635 129 -82.092499
-106.2635 130 -58.446499
-106.2635 129 -57.446499
-106.2635 144.2204 -58.446499
-106.2635 145.2204 -57.446499
-106.9475 144.2204 -58.446499
-106.9475 144.2204 -81.092499
-106.9475 130 -81.092499
-106.9475 130 -58.446499
-106.6975 130 -81.092499
-106.6975 144.2204 -81.092499
-106.6975 144.2204 -58.446499
-106.6975 130 -58.446499
-106.2635 146.2204 -81.092499
-106.2635 178 -81.092499
-106.2635 179 -82.092499
-106.2635 146.2204 -58.446499
-106.2635 178 -58.446499
-106.2635 179 -57.446499
-105.2635 179 -82.092499
-105.2635 178 -81.092499
-105.2635 146.2204 -81.092499
-105.2635 145.2204 -82.092499
-105.2635 146.2204 -58.446499
-105.2635 145.2204 -57.446499
-105.2635 178 -58.446499
-105.2635 179 -57.446499
-105.9475 178 -58.446499
-105.9475 178 -81.092499
-105.9475 146.2204 -81.092499
-105.9475 146.2204 -58.446499
-105.6975 146.2204 -81.092499
-105.6975 178 -81.092499
-105.6975 178 -58.446499
-105.6975 146.2204 -58.446499
100.9118 129 -109.7384
100.9117 179 -109.7384
101.9117 180 -109.7384
101.9118 128 -109.7384
75.1408 129 -109.7384
74.1408 128 -109.7384
75.1408 179 -109.7384
74.1408 180 -109.7384
101.9117 180 -104.3242
100.9117 179 -104.3242
100.9117 129 -104.3242
101.9117 128 -104.3242
75.1408 129 -104.3242
74.1408 128 -104.3242
75.1408 179 -104.3242
74.1408 180 -104.3242
99.911697 130 -107.8671
99.911697 144.2204 -107.8671
100.9117 145.2204 -107.8671
100.9117 129 -107.8671
76.1408 130 -107.8671
75.1408 129 -107.8671
76.1408 144.2204 -107.8671
75.1408 145.2204 -107.8671
100.9117 145.2204 -106.8671
99.911697 144.2204 -106.8671
99.911697 130 -106.8671
100.9117 129 -106.8671
76.1408 130 -106.8671
75.1408 129 -106.8671
76.1408 144.2204 -106.8671
75.1408 145.2204 -106.8671
76.1408 144.2204 -107.5511
99.911697 144.2204 -107.5511
99.911697 130 -107.5511
76.1408 130 -107.5511
99.911697 130 -107.3011
99.911697 144.2204 -107.3011
76.1408 144.2204 -107.3011
76.1408 130 -107.3011
99.911697 146.2204 -106.8671
99.911697 178 -106.8671
100.9117 179 -106.8671
76.1408 146.2204 -106.8671
76.1408 178 -106.8671
75.1408 179 -106.8671
100.9117 179 -105.8671
99.911697 178 -105.8671
99.911697 146.2204 -105.8671
100.9117 145.2204 -105.8671
76.1408 146.2204 -105.8671
75.1408 145.2204 -105.8671
76.1408 178 -105.8671
75.1408 179 -105.8671
76.1408 178 -106.5511
99.911697 178 -106.5511
99.911697 146.2204 -106.5511
76.1408 146.2204 -106.5511
99.911697 146.2204 -106.3011
99.911697 178 -106.3011
76.1408 178 -106.3011
76.1408 146.2204 -106.3011
-76.041298 157 -109.7384
1.7717 157 -109.7384
2.7716999 156 -109.7384
-77.041298 156 -109.7384
-76.041298 179 -109.7384
-77.041298 180 -109.7384
1.7717 179 -109.7384
2.7716999 180 -109.7384
2.7716999 156 -104.3242
1.7717 157 -104.3242
-76.041298 157 -104.3242
-77.041298 156 -104.3242
-76.041298 179 -104.3242
-77.041298 180 -104.3242
1.7717 179 -104.3242
2.7716999 180 -104.3242
-75.041298 158 -107.8671
-40.616699 158 -107.8671
-39.616699 157 -107.8671
-76.041298 157 -107.8671
-75.041298 178 -107.8671
-76.041298 179 -107.8671
-40.616699 178 -107.8671
-39.616699 179 -107.8671
-39.616699 157 -106.8671
-40.616699 158 -106.8671
-75.041298 158 -106.8671
-76.041298 157 -106.8671
-75.041298 178 -106.8671
-76.041298 179 -106.8671
-40.616699 178 -106.8671
-39.616699 179 -106.8671
-40.616699 178 -107.5511
-40.616699 158 -107.5511
-75.041298 158 -107.5511
-75.041298 178 -107.5511
-75.041298 158 -107.3011
-40.616699 158 -107.3011
-40.616699 178 -107.3011
-75.041298 178 -107.3011
-38.616699 158 -106.8671
0.77170002 158 -106.8671
1.7717 157 -106.8671
-38.616699 178 -106.8671
0.77170002 178 -106.8671
1.7717 179 -106.8671
1.7717 157 -105.8671
0.77170002 158 -105.8671
-38.616699 158 -105.8671
-39.616699 157 -105.8671
-38.616699 178 -105.8671
-39.616699 179 -105.8671
0.77170002 178 -105.8671
1.7717 179 -105.8671
0.77170002 178 -106.5511
0.77170002 158 -106.5511
-38.616699 158 -106.5511
-38.616699 178 -106.5511
-38.616699 158 -106.3011
0.77170002 158 -106.3011
0.77170002 178 -106.3011
-38.616699 178 -106.3011
8.9034004 129 124.8023
8.9034004 179 124.8023
9.9034004 180 124.8023
9.9034004 128 124.8023
-17.755501 129 124.8023
-18.755501 128 124.8023
-17.755501 179 124.8023
-18.755501 180 124.8023
9.9034004 180 130.2616
8.9034004 179 130.2616
8.9034004 129 130.2616
9.9034004 128 130.2616
-17.755501 129 130.2616
-18.755501 128 130.2616
-17.755501 179 130.2616
-18.755501 180 130.2616
7.9033999 130 126.7187
7.9033999 144.2204 126.7187
8.9034004 145.2204 126.7187
8.9034004 129 126.7187
-16.755501 130 126.7187
-17.755501 129 126.7187
-16.755501 144.2204 126.7187
-17.755501 145.2204 126.7187
8.9034004 145.2204 127.7187
7.9033999 144.2204 127.7187
7.9033999 130 127.7187
8.9034004 129 127.7187
-16.755501 130 127.7187
-17.755501 129 127.7187
-16.755501 144.2204 127.7187
-17.755501 145.2204 127.7187
-16.755501 144.2204 127.0347
7.9033999 144.2204 127.0347
7.9033999 130 127.0347
-16.755501 130 127.0347
7.9033999 130 127.2847
7.9033999 144.2204 127.2847
-16.755501 144.2204 127.2847
-16.755501 130 127.2847
7.9033999 146.2204 127.7187
7.9033999 178 127.7187
8.9034004 179 127.7187
-16.755501 146.2204 127.7187
-16.755501 178 127.7187
-17.755501 179 127.7187
8.9034004 179 128.7187
7.9033999 178 128.7187
7.9033999 146.2204 128.7187
8.9034004 145.2204 128.7187
-16.755501 146.2204 128.7187
-17.755501 145.2204 128.7187
-16.755501 178 128.7187
-17.755501 179 128.7187
-16.755501 178 128.0347
7.9033999 178 128.0347
7.9033999 146.2204 128.0347
-16.755501 146.2204 128.0347
7.9033999 146.2204 128.2847
7.9033999 178 128.2847
-16.755501 178 128.2847
-16.755501 146.2204 128.2847
-39.084099 129 124.8023
-39.084099 179 124.8023
-38.084099 180 124.8023
-38.084099 128 124.8023
-70.056702 129 124.8023
-71.056702 128 124.8023
-70.056702 179 124.8023
-71.056702 180 124.8023
-38.084099 180 130.2616
-39.084099 179 130.2616
-39.084 129 130.2616
-38.084 128 130.2616
-70.056702 129 130.2616
-71.056702 128 130.2616
-70.056702 179 130.2616
-71.056702 180 130.2616
-40.084 130 126.7187
-40.084099 144.2204 126.7187
-39.084099 145.2204 126.7187
-39.084 129 126.7187
-69.056702 130 126.7187
-70.056702 129 126.7187
-69.056702 144.2204 126.7187
-70.056702 145.2204 126.7187
-39.084099 145.2204 127.7187
-40.084099 144.2204 127.7187
-40.084 130 127.7187
-39.084 129 127.7187
-69.056702 130 127.7187
-70.056702 129 127.7187
-69.056702 144.2204 127.7187
-70.056702 145.2204 127.7187
-69.056702 144.2204 127.0347
-40.084099 144.2204 127.0347
-40.084 130 127.0347
-69.056702 130 127.0347
-40.084 130 127.2847
-40.084099 144.2204 127.2847
-69.056702 144.2204 127.2847
-69.056702 130 127.2847
-40.084099 146.2204 127.7187
-40.084099 178 127.7187
-39.084099 179 127.7187
-69.056702 146.2204 127.7187
-69.056702 178 127.7187
-70.056702 179 127.7187
-39.084099 179 128.7187
-40.084099 178 128.7187
-40.084099 146.2204 128.7187
-39.084099 145.2204 128.7187
-69.056702 146.2204 128.7187
-70.056702 145.2204 128.7187
-69.056702 178 128.7187
-70.056702 179 128.7187
-69.056702 178 128.0347
-40.084099 178 128.0347
-40.084099 146.2204 128.0347
-69.056702 146.2204 128.0347
-40.084099 146.2204 128.2847
-40.084099 178 128.2847
-69.056702 178 128.2847
-69.056702 146.2204 128.2847
82.959801 149.7657 130.26151
82.959801 149.7657 231.739
86.095299 147.4353 229.239
86.095299 147.4352 132.76151
146.76151 90.568703 231.739
144.6768 92.522903 229.239
146.76151 90.568703 130.26151
144.6768 92.522903 132.76151
20.2572 90.561996 130.26151
20.2572 90.561996 231.739
22.3195 92.529503 229.239
22.3195 92.529503 132.76151
79.851097 147.4153 229.239
79.851097 147.4153 132.76151
85.050301 146.8116 229.239
82.9655 148.7657 231.739
82.9655 148.7657 130.26151
85.050301 146.81149 132.76151
143.6317 91.8992 229.239
145.7164 89.945 231.739
143.6317 91.8992 132.76151
145.7164 89.945 130.26151
23.3717 91.912498 229.239
21.309401 89.945 231.739
21.309401 89.945 130.26151
23.371599 91.912498 132.76151
80.903297 146.79829 229.239
80.903297 146.79829 132.76151
143.6317 91.8992 229.239
143.6317 91.8992 132.76151
85.050301 146.81149 132.76151
85.050301 146.8116 229.239
80.903297 146.79829 229.239
80.903297 146.79829 132.76151
23.371599 91.912498 132.76151
23.3717 91.912498 229.239
145.71069 90.945 234.2011
82.959801 149.7657 234.2011
82.959801 146.2168 234.2011
145.71069 87.147202 234.2011
21.303699 90.945 234.2011
21.303699 87.147202 234.2011
82.959801 146.2168 231.739
82.959801 149.7657 231.739
145.71069 90.945 231.739
145.71069 87.147202 231.739
21.303699 87.147202 231.739
21.303699 90.945 231.739
-185.0816 87.142197 202.56979
35.651699 87.142197 202.56979
35.651699 89.713097 202.56979
-185.0816 89.713097 202.56979
-185.0816 87.142197 -182.4471
-185.0816 89.713097 -182.4471
130.8652 87.142197 -182.4471
130.8652 89.713097 -182.4471
35.651699 89.713097 197.4485
35.651699 85.642197 197.4485
-180.839 85.642197 197.4485
-180.839 89.713097 197.4485
-180.839 85.642197 -177.32581
-180.839 89.713097 -177.32581
130.8652 85.642197 -177.32581
130.8652 89.713097 -177.32581
35.651699 85.642197 201.06979
-183.7224 85.642197 200.92909
35.651699 86.017197 202.19479
-183.7224 85.642197 -180.8064
130.8652 86.017197 -182.0721
130.8652 85.642197 -180.9471
-184.74181 86.017197 202.1597
-184.74181 86.017197 -182.0369
-181.0735 90.657303 -177.5567
-109.3596 125.002 -109.9797
-108.0583 123.8169 -112.4202
-175.0334 91.737099 -175.55
130.8652 124.9495 -110.1914
128.3652 123.8169 -112.4202
130.8652 90.604599 -177.77879
128.3652 91.737099 -175.55
-109.3594 125.0017 130.5043
-181.0743 90.657097 197.6799
-175.0145 91.741402 195.6777
-108.0618 123.8105 132.9427
20.3286 90.6035 197.9037
18.774799 91.741402 195.6777
57.0219 124.9484 130.71671
52.9995 123.8105 132.9427
-179.0163 91.694901 192.0627
-179.0163 91.694901 -171.9193
-111.8215 123.8799 129.1011
-111.8215 123.8799 -108.5824
-108.0583 122.9254 -111.9672
-109.1348 124.058 -109.7384
-180.839 89.713097 -177.32581
-175.0334 90.845596 -175.097
128.3652 122.9254 -111.9672
130.8652 124.058 -109.7384
128.3652 90.845596 -175.097
130.8652 89.713097 -177.32581
-175.0145 90.850998 195.2225
-180.839 89.713097 197.4485
-109.1348 124.058 130.2616
-108.0618 122.92 132.48759
18.774799 90.850998 195.2225
20.3286 89.713097 197.4485
52.9995 122.92 132.4875
57.0219 124.058 130.26151
-178.5843 90.792999 192.0627
-178.5843 90.792999 -171.9193
-111.3895 122.978 129.1011
-111.3895 122.978 -108.5824
-175.0334 90.845596 -175.097
-108.0583 122.9254 -111.9672
128.3652 122.9254 -111.9672
128.3652 90.845596 -175.097
-175.0145 90.850998 195.2225
18.774799 90.850998 195.2225
52.9995 122.92 132.4875
-108.0618 122.92 132.48759
-178.5843 90.792999 192.0627
-111.3895 122.978 129.1011
-111.3895 122.978 -108.5824
-178.5843 90.792999 -171.9193
35.651699 89.713097 197.4485
-180.839 89.713097 197.4485
-180.839 84.010101 197.4485
35.651699 84.010101 197.4485
-180.839 89.713097 -177.32581
-180.839 84.010101 -177.32581
130.8652 89.713097 -177.32581
130.8652 84.010101 -177.32581
130.8652 84.010101 -109.7384
-109.1348 84.010101 -109.7384
-109.1348 84.010101 130.2616
35.651699 84.010101 130.2616
130.8652 124.058 -109.7384
-25.488501 0 197.4485
-25.488501 3 197.4485
-37.145302 3 197.4485
-37.145302 0 197.4485
-25.488501 -0 185.7917
-25.488501 3 185.7917
-37.145302 -0 185.7917
-37.145302 3 185.7917
-28.3169 81.339302 194.6201
-34.316898 81.339302 194.6201
-34.316898 36 194.6201
-28.3169 36 194.6201
-28.3169 81.339302 188.6201
-28.3169 36 188.6201
-34.316898 81.339302 188.6201
-34.316898 36 188.6201
-35.731098 36 196.0343
-26.9027 36 196.0343
-35.731098 36 187.2059
-26.9027 36 187.2059
-26.9027 84 196.0343
-35.731098 84 196.0343
-35.731098 81.339302 196.0343
-26.9027 81.339302 196.0343
-26.9027 84 187.2059
-26.9027 81.339302 187.2059
-35.731098 84 187.2059
-35.731098 81.339302 187.2059
-35.731098 3 196.0343
-26.9027 3 196.0343
-26.9027 3 187.2059
-35.731098 3 187.2059
-93.185799 0 197.4485
-93.185799 3 197.4485
-104.8427 3 197.4485
-104.8427 0 197.4485
-93.185799 -0 185.7917
-93.185799 3 185.7917
-104.8427 -0 185.7917
-104.8427 3 185.7917
-96.014297 81.339302 194.6201
-102.0143 81.339302 194.6201
-102.0143 36 194.6201
-96.014297 36 194.6201
-96.014297 81.339302 188.6201
-96.014297 36 188.6201
-102.0143 81.339302 188.6201
-102.0143 36 188.6201
-103.4285 36 196.0343
-94.599998 36 196.0343
-103.4285 36 187.2059
-94.599998 36 187.2059
-94.599998 84 196.0343
-103.4285 84 196.0343
-103.4285 81.339302 196.0343
-94.599998 81.339302 196.0343
-94.599998 84 187.2059
-94.599998 81.339302 187.2059
-103.4285 84 187.2059
-103.4285 81.339302 187.2059
-103.4285 3 196.0343
-94.599998 3 196.0343
-94.599998 3 187.2059
-103.4285 3 187.2059
-169.1821 0 197.4485
-169.1821 3 197.4485
-180.839 3 197.4485
-180.839 0 197.4485
-169.1821 -0 185.7917
-169.1821 3 185.7917
-180.839 -0 185.7917
-180.839 3 185.7917
-172.0105 81.339302 194.6201
-178.0105 81.339302 194.6201
-178.0105 36 194.6201
-172.0105 36 194.6201
-172.0105 81.339302 188.6201
-172.0105 36 188.6201
-178.0105 81.339302 188.6201
-178.0105 36 188.6201
-179.4248 36 196.0343
-170.5963 36 196.0343
-179.4248 36 187.2059
-170.5963 36 187.2059
-170.5963 84 196.0343
-179.4248 84 196.0343
-179.4248 81.339302 196.0343
-170.5963 81.339302 196.0343
-170.5963 84 187.2059
-170.5963 81.339302 187.2059
-179.4248 84 187.2059
-179.4248 81.339302 187.2059
-179.4248 3 196.0343
-170.5963 3 196.0343
-170.5963 3 187.2059
-179.4248 3 187.2059
-169.1821 0 117.507
-169.1821 3 117.507
-180.839 3 117.507
-180.839 0 117.507
-169.1821 -0 105.8501
-169.1821 3 105.8501
-180.839 -0 105.8501
-180.839 3 105.8501
-172.0105 81.339302 114.6786
-178.0105 81.339302 114.6786
-178.0105 36 114.6786
-172.0105 36 114.6786
-172.0105 81.339302 108.6786
-172.0105 36 108.6786
-178.0105 81.339302 108.6786
-178.0105 36 108.6786
-179.4248 36 116.0928
-170.5963 36 116.0928
-179.4248 36 107.2643
-170.5963 36 107.2643
-170.5963 84 116.0928
-179.4248 84 116.0928
-179.4248 81.339302 116.0928
-170.5963 81.339302 116.0928
-170.5963 84 107.2643
-170.5963 81.339302 107.2643
-179.4248 84 107.2643
-179.4248 81.339302 107.2643
-179.4248 3 116.0928
-170.5963 3 116.0928
-170.5963 3 107.2643
-179.4248 3 107.2643
-169.1821 0 31.4655
-169.1821 3 31.4655
-180.839 3 31.4655
-180.839 0 31.4655
-169.1821 -0 19.808599
-169.1821 3 19.808599
-180.839 -0 19.808599
-180.839 3 19.808599
-172.0105 81.339302 28.6371
-178.0105 81.339302 28.6371
-178.0105 36 28.6371
-172.0105 36 28.6371
-172.0105 81.339302 22.6371
-172.0105 36 22.6371
-178.0105 81.339302 22.6371
-178.0105 36 22.6371
-179.4248 36 30.0513
-170.5963 36 30.0513
-179.4248 36 21.222799
-170.5963 36 21.222799
-170.5963 84 30.0513
-179.4248 84 30.0513
-179.4248 81.339302 30.0513
-170.5963 81.339302 30.0513
-170.5963 84 21.222799
-170.5963 81.339302 21.222799
-179.4248 84 21.222799
-179.4248 81.339302 21.222799
-179.4248 3 30.0513
-170.5963 3 30.0513
-170.5963 3 21.222799
-179.4248 3 21.222799
-169.1821 0 -48.536701
-169.1821 3 -48.536701
-180.839 3 -48.536701
-180.839 0 -48.536701
-169.1821 -0 -60.1936
-169.1821 3 -60.1936
-180.839 -0 -60.1936
-180.839 3 -60.1936
-172.0105 81.339302 -51.365101
-178.0105 81.339302 -51.365101
-178.0105 36 -51.365101
-172.0105 36 -51.365101
-172.0105 81.339302 -57.365101
-172.0105 36 -57.365101
-178.0105 81.339302 -57.365101
-178.0105 36 -57.365101
-179.4248 36 -49.950901
-170.5963 36 -49.950901
-179.4248 36 -58.7794
-170.5963 36 -58.7794
-170.5963 84 -49.950901
-179.4248 84 -49.950901
-179.4248 81.339302 -49.950901
-170.5963 81.339302 -49.950901
-170.5963 84 -58.7794
-170.5963 81.339302 -58.7794
-179.4248 84 -58.7794
-179.4248 81.339302 -58.7794
-179.4248 3 -49.950901
-170.5963 3 -49.950901
-170.5963 3 -58.7794
-179.4248 3 -58.7794
-169.1821 0 -106.4601
-169.1821 3 -106.4601
-180.839 3 -106.4601
-180.839 0 -106.4601
-169.1821 -0 -118.1169
-169.1821 3 -118.1169
-180.839 -0 -118.1169
-180.839 3 -118.1169
-172.0105 81.339302 -109.2885
-178.0105 81.339302 -109.2885
-178.0105 36 -109.2885
-172.0105 36 -109.2885
-172.0105 81.339302 -115.2885
-172.0105 36 -115.2885
-178.0105 81.339302 -115.2885
-178.0105 36 -115.2885
-179.4248 36 -107.8743
-170.5963 36 -107.8743
-179.4248 36 -116.7027
-170.5963 36 -116.7027
-170.5963 84 -107.8743
-179.4248 84 -107.8743
-179.4248 81.339302 -107.8743
-170.5963 81.339302 -107.8743
-170.5963 84 -116.7027
-170.5963 81.339302 -116.7027
-179.4248 84 -116.7027
-179.4248 81.339302 -116.7027
-179.4248 3 -107.8743
-170.5963 3 -107.8743
-170.5963 3 -116.7027
-179.4248 3 -116.7027
-169.1821 0 -165.6689
-169.1821 3 -165.6689
-180.839 3 -165.6689
-180.839 0 -165.6689
-169.1821 -0 -177.32581
-169.1821 3 -177.32581
-180.839 -0 -177.32581
-180.839 3 -177.32581
-172.0105 81.339302 -168.4973
-178.0105 81.339302 -168.4973
-178.0105 36 -168.4973
-172.0105 36 -168.4973
-172.0105 81.339302 -174.4973
-172.0105 36 -174.4973
-178.0105 81.339302 -174.4973
-178.0105 36 -174.4973
-179.4248 36 -167.0831
-170.5963 36 -167.0831
-179.4248 36 -175.91161
-170.5963 36 -175.91161
-170.5963 84 -167.0831
-179.4248 84 -167.0831
-179.4248 81.339302 -167.0831
-170.5963 81.339302 -167.0831
-170.5963 84 -175.91161
-170.5963 81.339302 -175.91161
-179.4248 84 -175.91161
-179.4248 81.339302 -175.91161
-179.4248 3 -167.0831
-170.5963 3 -167.0831
-170.5963 3 -175.91161
-179.4248 3 -175.91161
-87.996201 0 -165.6689
-87.996201 3 -165.6689
-99.653 3 -165.6689
-99.653 0 -165.6689
-87.996201 -0 -177.32581
-87.996201 3 -177.32581
-99.653 -0 -177.32581
-99.653 3 -177.32581
-90.8246 81.339302 -168.4973
-96.8246 81.339302 -168.4973
-96.8246 36 -168.4973
-90.8246 36 -168.4973
-90.8246 81.339302 -174.4973
-90.8246 36 -174.4973
-96.8246 81.339302 -174.4973
-96.8246 36 -174.4973
-98.2388 36 -167.0831
-89.4104 36 -167.0831
-98.2388 36 -175.91161
-89.4104 36 -175.91161
-89.4104 84 -167.0831
-98.2388 84 -167.0831
-98.2388 81.339302 -167.0831
-89.4104 81.339302 -167.0831
-89.4104 84 -175.91161
-89.4104 81.339302 -175.91161
-98.2388 84 -175.91161
-98.2388 81.339302 -175.91161
-98.2388 3 -167.0831
-89.4104 3 -167.0831
-89.4104 3 -175.91161
-98.2388 3 -175.91161
33.781898 0 -165.6689
33.781898 3 -165.6689
22.125 3 -165.6689
22.125 0 -165.6689
33.781898 -0 -177.32581
33.781898 3 -177.32581
22.125 -0 -177.32581
22.125 3 -177.32581
30.953501 81.339302 -168.4973
24.953501 81.339302 -168.4973
24.953501 36 -168.4973
30.953501 36 -168.4973
30.953501 81.339302 -174.4973
30.953501 36 -174.4973
24.953501 81.339302 -174.4973
24.953501 36 -174.4973
23.539301 36 -167.0831
32.367699 36 -167.0831
23.539301 36 -175.91161
32.367699 36 -175.91161
32.367699 84 -167.0831
23.539301 84 -167.0831
23.539301 81.339302 -167.0831
32.367699 81.339302 -167.0831
32.367699 84 -175.91161
32.367699 81.339302 -175.91161
23.539301 84 -175.91161
23.539301 81.339302 -175.91161
23.539301 3 -167.0831
32.367699 3 -167.0831
32.367699 3 -175.91161
23.539301 3 -175.91161
130.8652 0 -165.6689
130.8652 3 -165.6689
119.2083 3 -165.6689
119.2083 0 -165.6689
130.8652 -0 -177.32581
130.8652 3 -177.32581
119.2083 -0 -177.32581
119.2083 3 -177.32581
128.0368 81.339302 -168.4973
122.0368 81.339302 -168.4973
122.0368 36 -168.4973
128.0368 36 -168.4973
128.0368 81.339302 -174.4973
128.0368 36 -174.4973
122.0368 81.339302 -174.4973
122.0368 36 -174.4973
120.6225 36 -167.0831
129.451 36 -167.0831
120.6225 36 -175.91161
129.451 36 -175.91161
129.451 84 -167.0831
120.6225 84 -167.0831
120.6225 81.339302 -167.0831
129.451 81.339302 -167.0831
129.451 84 -175.91161
129.451 81.339302 -175.91161
120.6225 84 -175.91161
120.6225 81.339302 -175.91161
120.6225 3 -167.0831
129.451 3 -167.0831
129.451 3 -175.91161
120.6225 3 -175.91161
-170.5963 30 192.6201
-170.5963 30 190.6201
-35.731098 30 190.6201
-35.731098 30 192.6201
-170.5963 32 192.6201
-35.731098 32 192.6201
-35.731098 32 190.6201
-170.5963 32 190.6201
-40.4202 -0 192.1201
-39.4202 -0 192.1201
-39.4202 30 192.1201
-40.4202 30 192.1201
-39.4202 -0 191.1201
-39.4202 30 191.1201
-40.4202 -0 191.1201
-40.4202 30 191.1201
-45.005402 -0 192.1201
-44.005402 -0 192.1201
-44.005402 30 192.1201
-45.005402 30 192.1201
-44.005402 -0 191.1201
-44.005402 30 191.1201
-45.005402 -0 191.1201
-45.005402 30 191.1201
-49.590599 -0 192.1201
-48.590599 -0 192.1201
-48.590599 30 192.1201
-49.590599 30 192.1201
-48.590599 -0 191.1201
-48.590599 30 191.1201
-49.590599 -0 191.1201
-49.590599 30 191.1201
-54.1759 -0 192.1201
-53.1759 -0 192.1201
-53.1759 30 192.1201
-54.1759 30 192.1201
-53.1759 -0 191.1201
-53.1759 30 191.1201
-54.1759 -0 191.1201
-54.1759 30 191.1201
-58.761101 -0 192.1201
-57.761101 -0 192.1201
-57.761101 30 192.1201
-58.761101 30 192.1201
-57.761101 -0 191.1201
-57.761101 30 191.1201
-58.761101 -0 191.1201
-58.761101 30 191.1201
-63.346401 -0 192.1201
-62.346401 -0 192.1201
-62.346401 30 192.1201
-63.346401 30 192.1201
-62.346401 -0 191.1201
-62.346401 30 191.1201
-63.346401 -0 191.1201
-63.346401 30 191.1201
-67.931602 -0 192.1201
-66.931602 -0 192.1201
-66.931602 30 192.1201
-67.931602 30 192.1201
-66.931602 -0 191.1201
-66.931602 30 191.1201
-67.931602 -0 191.1201
-67.931602 30 191.1201
-72.5168 -0 192.1201
-71.5168 -0 192.1201
-71.5168 30 192.1201
-72.5168 30 192.1201
-71.5168 -0 191.1201
-71.5168 30 191.1201
-72.5168 -0 191.1201
-72.5168 30 191.1201
-77.102097 -0 192.1201
-76.102097 -0 192.1201
-76.102097 30 192.1201
-77.102097 30 192.1201
-76.102097 -0 191.1201
-76.102097 30 191.1201
-77.102097 -0 191.1201
-77.102097 30 191.1201
-81.687302 -0 192.1201
-80.687302 -0 192.1201
-80.687302 30 192.1201
-81.687302 30 192.1201
-80.687302 -0 191.1201
-80.687302 30 191.1201
-81.687302 -0 191.1201
-81.687302 30 191.1201
-86.272499 -0 192.1201
-85.272499 -0 192.1201
-85.272499 30 192.1201
-86.272499 30 192.1201
-85.272499 -0 191.1201
-85.272499 30 191.1201
-86.272499 -0 191.1201
-86.272499 30 191.1201
-90.857803 -0 192.1201
-89.857803 -0 192.1201
-89.857803 30 192.1201
-90.857803 30 192.1201
-89.857803 -0 191.1201
-89.857803 30 191.1201
-90.857803 -0 191.1201
-90.857803 30 191.1201
-109.1987 -0 192.1201
-108.1987 -0 192.1201
-108.1987 30 192.1201
-109.1987 30 192.1201
-108.1987 -0 191.1201
-108.1987 30 191.1201
-109.1987 -0 191.1201
-109.1987 30 191.1201
-113.784 -0 192.1201
-112.784 -0 192.1201
-112.784 30 192.1201
-113.784 30 192.1201
-112.784 -0 191.1201
-112.784 30 191.1201
-113.784 -0 191.1201
-113.784 30 191.1201
-118.3692 -0 192.1201
-117.3692 -0 192.1201
-117.3692 30 192.1201
-118.3692 30 192.1201
-117.3692 -0 191.1201
-117.3692 30 191.1201
-118.3692 -0 191.1201
-118.3692 30 191.1201
-122.9544 -0 192.1201
-121.9544 -0 192.1201
-121.9544 30 192.1201
-122.9544 30 192.1201
-121.9544 -0 191.1201
-121.9544 30 191.1201
-122.9544 -0 191.1201
-122.9544 30 191.1201
-127.5397 -0 192.1201
-126.5397 -0 192.1201
-126.5397 30 192.1201
-127.5397 30 192.1201
-126.5397 -0 191.1201
-126.5397 30 191.1201
-127.5397 -0 191.1201
-127.5397 30 191.1201
-132.12489 -0 192.1201
-131.12489 -0 192.1201
-131.12489 30 192.1201
-132.12489 30 192.1201
-131.12489 -0 191.1201
-131.12489 30 191.1201
-132.12489 -0 191.1201
-132.12489 30 191.1201
-136.7101 -0 192.1201
-135.7101 -0 192.1201
-135.7101 30 192.1201
-136.7101 30 192.1201
-135.7101 -0 191.1201
-135.7101 30 191.1201
-136.7101 -0 191.1201
-136.7101 30 191.1201
-141.29539 -0 192.1201
-140.29539 -0 192.1201
-140.29539 30 192.1201
-141.29539 30 192.1201
-140.29539 -0 191.1201
-140.29539 30 191.1201
-141.29539 -0 191.1201
-141.29539 30 191.1201
-145.8806 -0 192.1201
-144.8806 -0 192.1201
-144.8806 30 192.1201
-145.8806 30 192.1201
-144.8806 -0 191.1201
-144.8806 30 191.1201
-145.8806 -0 191.1201
-145.8806 30 191.1201
-150.46581 -0 192.1201
-149.46581 -0 192.1201
-149.46581 30 192.1201
-150.46581 30 192.1201
-149.46581 -0 191.1201
-149.46581 30 191.1201
-150.46581 -0 191.1201
-150.46581 30 191.1201
-155.0511 -0 192.1201
-154.0511 -0 192.1201
-154.0511 30 192.1201
-155.0511 30 192.1201
-154.0511 -0 191.1201
-154.0511 30 191.1201
-155.0511 -0 191.1201
-155.0511 30 191.1201
-159.63631 -0 192.1201
-158.63631 -0 192.1201
-158.63631 30 192.1201
-159.63631 30 192.1201
-158.63631 -0 191.1201
-158.63631 30 191.1201
-159.63631 -0 191.1201
-159.63631 30 191.1201
-164.2215 -0 192.1201
-163.2215 -0 192.1201
-163.2215 30 192.1201
-164.2215 30 192.1201
-163.2215 -0 191.1201
-163.2215 30 191.1201
-164.2215 -0 191.1201
-164.2215 30 191.1201
-168.80679 -0 192.1201
-167.80679 -0 192.1201
-167.80679 30 192.1201
-168.80679 30 192.1201
-167.80679 -0 191.1201
-167.80679 30 191.1201
-168.80679 -0 191.1201
-168.80679 30 191.1201
-175.526 0 183.931
-175.526 0 184.931
-175.526 30 184.931
-175.526 30 183.931
-174.526 0 184.931
-174.526 30 184.931
-174.526 0 183.931
-174.526 30 183.931
-175.526 0 179.34579
-175.526 0 180.34579
-175.526 30 180.34579
-175.526 30 179.34579
-174.526 0 180.34579
-174.526 30 180.34579
-174.526 0 179.34579
-174.526 30 179.34579
-175.526 0 174.7605
-175.526 0 175.7605
-175.526 30 175.7605
-175.526 30 174.7605
-174.526 0 175.7605
-174.526 30 175.7605
-174.526 0 174.7605
-174.526 30 174.7605
-175.526 0 170.17529
-175.526 0 171.17529
-175.526 30 171.17529
-175.526 30 170.17529
-174.526 0 171.17529
-174.526 30 171.17529
-174.526 0 170.17529
-174.526 30 170.17529
-175.526 0 165.5901
-175.526 0 166.5901
-175.526 30 166.5901
-175.526 30 165.5901
-174.526 0 166.5901
-174.526 30 166.5901
-174.526 0 165.5901
-174.526 30 165.5901
-175.526 0 161.00481
-175.526 0 162.00481
-175.526 30 162.00481
-175.526 30 161.00481
-174.526 0 162.00481
-174.526 30 162.00481
-174.526 0 161.00481
-174.526 30 161.00481
-175.526 0 156.4196
-175.526 0 157.4196
-175.526 30 157.4196
-175.526 30 156.4196
-174.526 0 157.4196
-174.526 30 157.4196
-174.526 0 156.4196
-174.526 30 156.4196
-175.526 0 151.8344
-175.526 0 152.8344
-175.526 30 152.8344
-175.526 30 151.8344
-174.526 0 152.8344
-174.526 30 152.8344
-174.526 0 151.8344
-174.526 30 151.8344
-175.526 0 147.2491
-175.526 0 148.2491
-175.526 30 148.2491
-175.526 30 147.2491
-174.526 0 148.2491
-174.526 30 148.2491
-174.526 0 147.2491
-174.526 30 147.2491
-175.526 0 142.66389
-175.526 0 143.66389
-175.526 30 143.66389
-175.526 30 142.66389
-174.526 0 143.66389
-174.526 30 143.66389
-174.526 0 142.66389
-174.526 30 142.66389
-175.526 0 138.0786
-175.526 0 139.0786
-175.526 30 139.0786
-175.526 30 138.0786
-174.526 0 139.0786
-174.526 30 139.0786
-174.526 0 138.0786
-174.526 30 138.0786
-175.526 0 133.49339
-175.526 0 134.49339
-175.526 30 134.49339
-175.526 30 133.49339
-174.526 0 134.49339
-174.526 30 134.49339
-174.526 0 133.49339
-174.526 30 133.49339
-175.526 0 128.79201
-175.526 0 129.79201
-175.526 30 129.79201
-175.526 30 128.79201
-174.526 0 129.79201
-174.526 30 129.79201
-174.526 0 128.79201
-174.526 30 128.79201
-175.526 0 124.2068
-175.526 0 125.2068
-175.526 30 125.2068
-175.526 30 124.2068
-174.526 0 125.2068
-174.526 30 125.2068
-174.526 0 124.2068
-174.526 30 124.2068
-175.526 0 119.6216
-175.526 0 120.6216
-175.526 30 120.6216
-175.526 30 119.6216
-174.526 0 120.6216
-174.526 30 120.6216
-174.526 0 119.6216
-174.526 30 119.6216
-175.526 0 102.4594
-175.526 0 103.4594
-175.526 30 103.4594
-175.526 30 102.4594
-174.526 0 103.4594
-174.526 30 103.4594
-174.526 0 102.4594
-174.526 30 102.4594
-175.526 0 97.8741
-175.526 0 98.8741
-175.526 30 98.8741
-175.526 30 97.8741
-174.526 0 98.8741
-174.526 30 98.8741
-174.526 0 97.8741
-174.526 30 97.8741
-175.526 -0 93.288902
-175.526 -0 94.288902
-175.526 30 94.288902
-175.526 30 93.288902
-174.526 -0 94.288902
-174.526 30 94.288902
-174.526 -0 93.288902
-174.526 30 93.288902
-175.526 0 88.703697
-175.526 0 89.703697
-175.526 30 89.703697
-175.526 30 88.703697
-174.526 0 89.703697
-174.526 30 89.703697
-174.526 0 88.703697
-174.526 30 88.703697
-175.526 0 84.118401
-175.526 0 85.118401
-175.526 30 85.118401
-175.526 30 84.118401
-174.526 0 85.118401
-174.526 30 85.118401
-174.526 0 84.118401
-174.526 30 84.118401
-175.526 0 79.533203
-175.526 0 80.533203
-175.526 30 80.533203
-175.526 30 79.533203
-174.526 0 80.533203
-174.526 30 80.533203
-174.526 0 79.533203
-174.526 30 79.533203
-175.526 0 74.947998
-175.526 0 75.947998
-175.526 30 75.947998
-175.526 30 74.947998
-174.526 0 75.947998
-174.526 30 75.947998
-174.526 0 74.947998
-174.526 30 74.947998
-175.526 -0 70.362701
-175.526 -0 71.362701
-175.526 30 71.362701
-175.526 30 70.362701
-174.526 -0 71.362701
-174.526 30 71.362701
-174.526 -0 70.362701
-174.526 30 70.362701
-175.526 0 65.897202
-175.526 0 66.897202
-175.526 30 66.897202
-175.526 30 65.897202
-174.526 0 66.897202
-174.526 30 66.897202
-174.526 0 65.897202
-174.526 30 65.897202
-175.526 0 61.311901
-175.526 0 62.311901
-175.526 30 62.311901
-175.526 30 61.311901
-174.526 0 62.311901
-174.526 30 62.311901
-174.526 0 61.311901
-174.526 30 61.311901
-175.526 0 56.7267
-175.526 0 57.7267
-175.526 30 57.7267
-175.526 30 56.7267
-174.526 0 57.7267
-174.526 30 57.7267
-174.526 0 56.7267
-174.526 30 56.7267
-175.526 0 52.141399
-175.526 0 53.141399
-175.526 30 53.141399
-175.526 30 52.141399
-174.526 0 53.141399
-174.526 30 53.141399
-174.526 0 52.141399
-174.526 30 52.141399
-175.526 0 47.556198
-175.526 0 48.556198
-175.526 30 48.556198
-175.526 30 47.556198
-174.526 0 48.556198
-174.526 30 48.556198
-174.526 0 47.556198
-174.526 30 47.556198
-175.526 0 42.971001
-175.526 0 43.971001
-175.526 30 43.971001
-175.526 30 42.971001
-174.526 0 43.971001
-174.526 30 43.971001
-174.526 0 42.971001
-174.526 30 42.971001
-175.526 0 38.3857
-175.526 0 39.3857
-175.526 30 39.3857
-175.526 30 38.3857
-174.526 0 39.3857
-174.526 30 39.3857
-174.526 0 38.3857
-174.526 30 38.3857
-175.526 0 33.800499
-175.526 0 34.800499
-175.526 30 34.800499
-175.526 30 33.800499
-174.526 0 34.800499
-174.526 30 34.800499
-174.526 0 33.800499
-174.526 30 33.800499
-175.526 0 -63.145401
-175.526 0 -62.145401
-175.526 30 -62.145401
-175.526 30 -63.145401
-174.526 0 -62.145401
-174.526 30 -62.145401
-174.526 0 -63.145401
-174.526 30 -63.145401
-175.526 0 -67.730698
-175.526 0 -66.730698
-175.526 30 -66.730598
-175.526 30 -67.730598
-174.526 0 -66.730698
-174.526 30 -66.730598
-174.526 0 -67.730698
-174.526 30 -67.730598
-175.526 0 -72.315903
-175.526 0 -71.315903
-175.526 30 -71.315903
-175.526 30 -72.315903
-174.526 0 -71.315903
-174.526 30 -71.315903
-174.526 0 -72.315903
-174.526 30 -72.315903
-175.526 0 -76.9011
-175.526 0 -75.9011
-175.526 30 -75.9011
-175.526 30 -76.9011
-174.526 0 -75.9011
